ply
format ascii 1.0
comment VCGLIB generated
element vertex 1125
property float x
property float y
property float z
property uchar red
property uchar green
property uchar blue
property uchar alpha
element face 0
property list uchar int vertex_indices
end_header
0.133743 -0.137423 1.08 210 191 169 255 
0.136554 -0.137289 1.079 218 198 174 255 
0.139617 -0.137409 1.08 221 200 178 255 
0.142685 -0.137529 1.081 218 198 174 255 
0.145759 -0.137649 1.082 215 192 169 255 
0.149112 -0.138024 1.085 213 190 167 255 
0.15192 -0.137889 1.084 214 191 168 255 
0.154295 -0.137373 1.08 220 197 174 255 
0.156938 -0.137111 1.078 218 197 175 255 
0.159569 -0.136849 1.076 218 197 175 255 
-0.0931557 -0.140702 1.082 210 186 158 255 
-0.0901246 -0.140577 1.081 207 183 157 255 
-0.0867761 -0.139931 1.076 216 191 168 255 
-0.0837662 -0.139806 1.075 219 194 171 255 
-0.0808367 -0.13981 1.075 214 191 168 255 
-0.0778344 -0.139685 1.074 209 187 161 255 
-0.0748374 -0.139559 1.073 215 191 165 255 
-0.0718455 -0.139433 1.072 210 186 160 255 
-0.0686017 -0.138786 1.067 213 189 161 255 
-0.0654465 -0.13827 1.063 215 191 165 255 
-0.0620775 -0.137233 1.055 210 186 160 255 
-0.0586958 -0.136065 1.046 211 188 165 255 
-0.0547757 -0.133467 1.026 212 189 166 255 
-0.0504072 -0.129437 0.995 210 190 166 255 
-0.0440986 -0.119683 0.92 208 185 162 255 
-0.0393291 -0.113181 0.87 209 186 164 255 
-0.0366587 -0.112272 0.863 205 199 193 255 
-0.0341059 -0.111624 0.858 190 205 218 255 
-0.0315063 -0.110715 0.851 193 206 221 255 
-0.0288075 -0.109286 0.84 191 208 227 255 
-0.0263265 -0.108506 0.834 190 210 228 255 
-0.0240223 -0.108378 0.833 194 214 230 255 
-0.0216713 -0.107989 0.83 205 220 235 255 
-0.0194067 -0.10799 0.83 235 251 255 255 
-0.0172246 -0.108511 0.834 250 254 255 255 
-0.0151103 -0.109683 0.843 248 253 255 255 
-0.0128404 -0.109944 0.845 233 244 249 255 
-0.0105346 -0.109945 0.845 225 242 248 255 
-0.0082386 -0.110076 0.846 231 251 255 255 
-0.00594406 -0.110336 0.848 228 251 255 255 
-0.00364288 -0.110727 0.851 227 250 254 255 
-0.00131909 -0.110597 0.85 226 248 254 255 
0.00100277 -0.110857 0.852 200 224 233 255 
0.00335116 -0.111638 0.858 217 241 249 255 
0.0057721 -0.113199 0.87 232 254 255 255 
0.00834278 -0.115931 0.891 232 254 255 255 
0.0109071 -0.117361 0.902 12 32 48 255 
0.0133091 -0.11684 0.898 18 27 38 255 
0.015777 -0.11697 0.899 21 26 32 255 
0.01823 -0.116969 0.899 19 25 31 255 
0.020752 -0.117358 0.902 42 48 54 255 
0.0229557 -0.116056 0.892 43 49 55 255 
0.0249624 -0.114103 0.877 21 30 41 255 
0.0269496 -0.11241 0.864 0 4 23 255 
0.0291371 -0.111758 0.859 3 18 93 255 
0.0312606 -0.110975 0.853 41 85 189 255 
0.0336269 -0.111104 0.854 7 93 211 255 
0.0359985 -0.111232 0.855 4 94 213 255 
0.0385099 -0.11175 0.859 5 95 214 255 
0.0409955 -0.112138 0.862 4 84 206 255 
0.0432961 -0.112006 0.861 0 72 195 255 
0.0454851 -0.111613 0.858 1 77 197 255 
0.0477133 -0.11135 0.856 7 83 203 255 
0.0502228 -0.111738 0.859 5 83 203 255 
0.0529321 -0.112515 0.865 10 89 207 255 
0.0551625 -0.112252 0.863 10 89 197 255 
0.0574485 -0.112119 0.862 140 148 164 255 
0.0600757 -0.112636 0.866 170 162 125 255 
0.063085 -0.113803 0.875 162 154 129 255 
0.0655445 -0.11393 0.876 27 79 156 255 
0.0680093 -0.114056 0.877 6 72 150 255 
0.0705596 -0.114312 0.879 202 249 255 255 
0.0737845 -0.115609 0.889 237 253 255 255 
0.0771494 -0.117035 0.9 245 253 255 255 
0.0816353 -0.120022 0.923 236 244 251 255 
0.0873403 -0.124568 0.958 216 221 227 255 
0.0951135 -0.131715 1.013 236 244 251 255 
0.10164 -0.136781 1.052 216 221 227 255 
0.105895 -0.138596 1.066 196 202 205 255 
0.109002 -0.13885 1.068 187 183 181 255 
0.111909 -0.138844 1.068 207 193 184 255 
0.115139 -0.139228 1.071 202 188 171 255 
0.117943 -0.139092 1.07 210 192 176 255 
0.121081 -0.139346 1.072 208 188 170 255 
0.124229 -0.139599 1.074 210 191 169 255 
0.127624 -0.140113 1.078 219 198 176 255 
0.130557 -0.140106 1.078 219 200 178 255 
0.133489 -0.140099 1.078 211 191 167 255 
0.136294 -0.139963 1.077 212 192 168 255 
0.138964 -0.139696 1.075 217 196 174 255 
0.141622 -0.139429 1.073 222 201 179 255 
0.144809 -0.139682 1.075 219 198 176 255 
0.148418 -0.140324 1.08 212 191 169 255 
0.151212 -0.140187 1.079 212 189 167 255 
0.153858 -0.139919 1.077 215 192 169 255 
0.156639 -0.139782 1.076 215 192 169 255 
0.159265 -0.139514 1.074 219 198 176 255 
-0.0954762 -0.142711 1.075 215 191 163 255 
-0.0926341 -0.142848 1.076 215 191 163 255 
-0.0897028 -0.142853 1.076 211 187 159 255 
-0.08661 -0.142593 1.074 206 182 156 255 
-0.0838395 -0.142863 1.076 217 193 167 255 
-0.0806066 -0.142336 1.072 218 195 172 255 
-0.0775403 -0.142075 1.07 215 193 167 255 
-0.0744148 -0.141681 1.067 212 190 164 255 
-0.0716405 -0.141951 1.069 209 187 161 255 
-0.0684693 -0.141423 1.065 213 191 165 255 
-0.0652581 -0.140763 1.06 214 190 164 255 
-0.0618386 -0.139572 1.051 209 186 163 255 
-0.0587486 -0.139044 1.047 209 186 163 255 
-0.0545591 -0.135727 1.022 208 188 164 255 
-0.0496952 -0.130285 0.981 211 191 167 255 
-0.0436168 -0.120858 0.91 210 187 164 255 
-0.0395077 -0.116079 0.874 207 186 166 255 
-0.036869 -0.115285 0.868 202 197 191 255 
-0.0343027 -0.114622 0.863 199 204 214 255 
-0.0316896 -0.113694 0.856 191 205 222 255 
-0.0289773 -0.112235 0.845 186 205 225 255 
-0.0264828 -0.11144 0.839 189 212 232 255 
-0.0240209 -0.110644 0.833 189 210 230 255 
-0.0216439 -0.110114 0.829 201 216 235 255 
-0.0193354 -0.10985 0.827 235 249 255 255 
-0.0170997 -0.109984 0.828 241 253 255 255 
-0.0149481 -0.110782 0.834 241 254 255 255 
-0.0127333 -0.111314 0.838 243 254 255 255 
-0.0104966 -0.111846 0.842 239 254 255 255 
-0.00821865 -0.112112 0.844 234 251 255 255 
-0.00595073 -0.112777 0.849 232 249 254 255 
-0.00362982 -0.112644 0.848 230 248 253 255 
-0.00131281 -0.112379 0.846 228 249 253 255 
0.000990942 -0.111847 0.842 228 250 255 255 
0.00331192 -0.112644 0.848 230 252 255 255 
0.00569216 -0.113972 0.858 236 253 255 255 
0.00815504 -0.115699 0.871 234 253 255 255 
0.010713 -0.117691 0.886 92 121 136 255 
0.0132046 -0.118354 0.891 0 10 30 255 
0.0156006 -0.118088 0.889 20 24 34 255 
0.0180465 -0.118219 0.89 16 21 28 255 
0.0205208 -0.118484 0.892 8 18 25 255 
0.0230573 -0.119014 0.896 12 20 27 255 
0.0254164 -0.118614 0.893 19 29 38 255 
0.0273535 -0.116488 0.877 115 125 142 255 
0.0294407 -0.11529 0.868 10 23 46 255 
0.0315154 -0.114226 0.86 0 8 69 255 
0.0338612 -0.114224 0.86 13 49 147 255 
0.0361648 -0.114089 0.859 11 94 210 255 
0.0385974 -0.114353 0.861 7 95 214 255 
0.0410407 -0.114616 0.863 8 90 210 255 
0.043344 -0.114481 0.862 0 73 192 255 
0.0455355 -0.11408 0.859 0 70 189 255 
0.0503369 -0.11434 0.861 1 75 195 255 
0.0531127 -0.115267 0.868 2 78 197 255 
0.055479 -0.115264 0.868 8 81 194 255 
0.0577785 -0.115128 0.867 98 122 183 255 
0.060003 -0.114859 0.865 115 111 146 255 
0.0626489 -0.115387 0.869 58 70 132 255 
0.065092 -0.115516 0.87 36 100 170 255 
0.0678505 -0.116176 0.875 213 251 255 255 
0.0708768 -0.117235 0.883 241 253 255 255 
0.0746104 -0.119355 0.899 247 253 255 255 
0.079031 -0.122404 0.922 247 252 255 255 
0.0845494 -0.126913 0.956 233 238 248 255 
0.091438 -0.133148 1.003 233 238 248 255 
0.0978311 -0.13832 1.042 211 215 225 255 
0.102601 -0.140969 1.062 189 192 196 255 
0.10589 -0.141495 1.066 199 195 195 255 
0.108894 -0.141622 1.067 194 188 182 255 
0.111694 -0.141483 1.066 211 196 183 255 
0.114703 -0.14161 1.067 209 191 175 255 
0.117716 -0.141736 1.068 211 190 170 255 
0.120736 -0.141863 1.069 213 192 170 255 
0.123875 -0.142122 1.071 216 195 173 255 
0.127144 -0.142513 1.074 211 191 167 255 
0.130187 -0.142639 1.075 213 193 169 255 
0.132863 -0.142367 1.073 220 200 176 255 
0.135781 -0.14236 1.073 217 197 173 255 
0.13831 -0.141955 1.07 211 191 167 255 
0.141219 -0.141948 1.07 217 196 174 255 
0.144397 -0.142206 1.072 216 195 173 255 
0.14786 -0.142729 1.076 222 201 179 255 
0.150784 -0.142722 1.076 217 196 174 255 
0.153422 -0.142449 1.074 211 190 168 255 
0.156194 -0.142309 1.073 210 190 166 255 
0.158961 -0.142168 1.072 214 191 168 255 
-0.0951157 -0.145092 1.071 217 193 165 255 
-0.0922846 -0.145233 1.072 215 191 163 255 
-0.0893644 -0.145238 1.072 215 191 163 255 
-0.0863633 -0.145107 1.071 212 188 160 255 
-0.0834453 -0.145112 1.071 206 182 154 255 
-0.0804518 -0.144981 1.07 209 185 159 255 
-0.0771736 -0.144308 1.065 216 192 166 255 
-0.0741317 -0.144041 1.063 217 195 169 255 
-0.0712344 -0.144046 1.063 211 188 165 255 
-0.0682726 -0.143914 1.062 209 186 163 255 
-0.0651313 -0.143376 1.058 212 189 166 255 
-0.0618351 -0.142431 1.051 212 189 166 255 
-0.0585769 -0.141485 1.044 213 190 167 255 
-0.0546093 -0.138643 1.023 210 187 164 255 
-0.0497936 -0.133225 0.983 211 191 165 255 
-0.043135 -0.121978 0.9 209 190 168 255 
-0.0397766 -0.11927 0.88 201 188 175 255 
-0.0370793 -0.118323 0.873 201 197 204 255 
-0.0344598 -0.117512 0.867 198 203 214 255 
-0.0317618 -0.116294 0.858 190 204 221 255 
-0.0290785 -0.114941 0.848 153 175 209 255 
-0.026576 -0.114129 0.842 59 81 150 255 
-0.024106 -0.113317 0.836 165 188 242 255 
-0.0217732 -0.113048 0.834 194 215 235 255 
-0.0194278 -0.112642 0.831 193 215 233 255 
-0.0171194 -0.112372 0.829 234 250 255 255 
-0.0148576 -0.112373 0.829 243 253 255 255 
-0.0126414 -0.11278 0.832 245 254 255 255 
-0.0104586 -0.11373 0.839 244 253 255 255 
-0.00815975 -0.113595 0.838 245 254 255 255 
-0.00591534 -0.114409 0.844 240 253 255 255 
-0.00359965 -0.114002 0.841 239 254 255 255 
-0.00130342 -0.113867 0.84 237 254 255 255 
0.000983824 -0.113325 0.836 236 253 255 255 
0.00330001 -0.114545 0.845 235 252 255 255 
0.00566529 -0.115764 0.854 232 253 255 255 
0.00810776 -0.117391 0.866 230 255 255 255 
0.0106278 -0.119152 0.879 213 235 251 255 
0.013189 -0.120643 0.89 41 68 104 255 
0.0155822 -0.120371 0.888 36 60 96 255 
0.0180049 -0.12037 0.888 84 100 109 255 
0.0204505 -0.120504 0.889 72 82 101 255 
0.0231075 -0.121723 0.898 45 49 83 255 
0.0255857 -0.121857 0.899 22 28 63 255 
0.0276327 -0.120093 0.886 9 20 41 255 
0.0296765 -0.118601 0.875 33 44 59 255 
0.0316235 -0.116972 0.863 21 32 47 255 
0.033938 -0.116835 0.862 0 12 29 255 
0.036247 -0.116697 0.861 10 46 134 255 
0.03864 -0.116831 0.862 18 80 190 255 
0.0410859 -0.1171 0.864 6 80 200 255 
0.0433917 -0.116962 0.863 4 76 195 255 
0.045533 -0.116417 0.859 4 70 182 255 
0.0478194 -0.116279 0.858 3 70 186 255 
0.050451 -0.116953 0.863 4 71 188 255 
0.0531708 -0.117764 0.869 2 71 190 255 
0.0555398 -0.117761 0.869 6 75 192 255 
0.0577752 -0.117486 0.867 8 71 169 255 
0.0599302 -0.117076 0.864 6 66 154 255 
0.0625012 -0.11748 0.867 124 177 240 255 
0.065238 -0.118153 0.872 226 251 255 255 
0.0683895 -0.119504 0.882 247 253 255 255 
0.0719163 -0.121398 0.896 248 253 255 255 
0.0761 -0.124238 0.917 220 225 235 255 
0.0814265 -0.128705 0.95 220 225 235 255 
0.08764 -0.134255 0.991 199 204 214 255 
0.0940766 -0.139804 1.032 199 204 214 255 
0.0986707 -0.142373 1.051 186 191 202 255 
0.102402 -0.143586 1.06 196 192 192 255 
0.105487 -0.143852 1.062 194 188 182 255 
0.108582 -0.144117 1.064 205 193 186 255 
0.111583 -0.144246 1.065 209 191 175 255 
0.114481 -0.14424 1.065 213 193 175 255 
0.11749 -0.144369 1.066 218 197 175 255 
0.120278 -0.144227 1.065 213 192 170 255 
0.123175 -0.144221 1.065 210 187 164 255 
0.126427 -0.144621 1.068 216 193 170 255 
0.129696 -0.14502 1.071 214 194 170 255 
0.132608 -0.145013 1.071 213 193 169 255 
0.135141 -0.1446 1.068 214 194 170 255 
0.137657 -0.144187 1.065 219 198 176 255 
0.140552 -0.144179 1.065 214 193 171 255 
0.143851 -0.144578 1.068 209 188 166 255 
0.147029 -0.144842 1.07 214 193 171 255 
0.149936 -0.144834 1.07 219 198 176 255 
0.1527 -0.144691 1.069 219 198 176 255 
0.155459 -0.144548 1.068 214 193 171 255 
0.15836 -0.14454 1.068 212 190 164 255 
-0.0945775 -0.147175 1.065 216 192 164 255 
-0.0919351 -0.147595 1.068 215 191 163 255 
-0.0891093 -0.147738 1.069 216 192 164 255 
-0.0861165 -0.147605 1.068 217 193 165 255 
-0.0831289 -0.147472 1.067 212 188 160 255 
-0.0800713 -0.1472 1.065 209 185 157 255 
-0.0769518 -0.14679 1.062 209 185 159 255 
-0.0739182 -0.146518 1.06 213 190 167 255 
-0.0710963 -0.14666 1.061 216 193 170 255 
-0.0682044 -0.146664 1.061 209 186 163 255 
-0.0650045 -0.145977 1.056 207 184 161 255 
-0.0615374 -0.144598 1.046 213 193 169 255 
-0.0580125 -0.142943 1.034 213 191 165 255 
-0.054019 -0.139904 1.012 209 187 161 255 
-0.0495882 -0.135345 0.979 213 191 165 255 
-0.0435159 -0.125532 0.908 211 192 172 255 
-0.0399551 -0.122217 0.884 205 191 181 255 
-0.037247 -0.121251 0.877 201 197 204 255 
-0.034577 -0.120286 0.87 196 201 212 255 
-0.031982 -0.119458 0.864 178 193 212 255 
-0.0293854 -0.118492 0.857 69 91 149 255 
-0.02689 -0.117802 0.852 19 54 128 255 
-0.0243065 -0.116559 0.843 4 45 123 255 
-0.0219024 -0.116008 0.839 175 201 229 255 
-0.0194734 -0.115179 0.833 189 212 234 255 
-0.0171183 -0.114627 0.829 208 224 240 255 
-0.0148209 -0.114352 0.827 238 252 255 255 
-0.0125799 -0.114491 0.828 245 254 255 255 
-0.0103832 -0.115183 0.833 247 254 255 255 
-0.00811058 -0.115183 0.833 244 253 255 255 
-0.00587995 -0.116013 0.839 243 254 255 255 
-0.00358232 -0.115737 0.837 241 254 255 255 
-0.00130179 -0.116014 0.839 238 254 255 255 
0.000987296 -0.116014 0.839 235 252 255 255 
0.00329591 -0.116705 0.844 234 251 255 255 
0.00562516 -0.117258 0.848 226 251 255 255 
0.0080043 -0.118225 0.855 222 249 255 255 
0.0105304 -0.120437 0.871 179 211 244 255 
0.0131438 -0.122649 0.887 135 167 200 255 
0.0155462 -0.12251 0.886 46 66 82 255 
0.0179227 -0.122232 0.884 147 157 134 255 
0.0202883 -0.121955 0.882 117 124 126 255 
0.0228231 -0.122645 0.887 31 36 74 255 
0.0253565 -0.123196 0.891 26 35 74 255 
0.0276934 -0.12278 0.888 18 29 60 255 
0.0299121 -0.121949 0.882 21 32 47 255 
0.031988 -0.120702 0.873 48 58 65 255 
0.034251 -0.120286 0.87 18 25 36 255 
0.0364553 -0.119731 0.866 2 9 62 255 
0.0388171 -0.119728 0.866 36 71 163 255 
0.0411311 -0.119588 0.865 9 76 192 255 
0.0434395 -0.119447 0.864 5 77 192 255 
0.0456893 -0.119168 0.862 0 70 161 255 
0.0479281 -0.118889 0.86 0 61 140 255 
0.0503312 -0.119024 0.861 0 56 144 255 
0.0528007 -0.119298 0.863 0 59 151 255 
0.0553449 -0.119709 0.866 0 53 143 255 
0.0576387 -0.119568 0.865 130 172 204 255 
0.0599268 -0.119426 0.864 237 252 255 255 
0.0625697 -0.119975 0.868 247 252 255 255 
0.0656831 -0.121354 0.878 248 252 255 255 
0.069316 -0.123562 0.894 248 252 255 255 
0.0732766 -0.126183 0.913 207 211 225 255 
0.0780874 -0.130049 0.941 190 198 214 255 
0.0844217 -0.136125 0.985 190 198 214 255 
0.0907302 -0.141786 1.026 186 194 210 255 
0.0954386 -0.144683 1.047 191 194 201 255 
0.098853 -0.145507 1.053 195 192 195 255 
0.10201 -0.145916 1.056 198 187 182 255 
0.105183 -0.146325 1.059 206 190 175 255 
0.108168 -0.146457 1.06 210 194 178 255 
0.111472 -0.147003 1.064 216 197 177 255 
0.114368 -0.146997 1.064 214 193 171 255 
0.117483 -0.147267 1.066 213 190 168 255 
0.120045 -0.146846 1.063 219 198 176 255 
0.122706 -0.146564 1.061 220 200 176 255 
0.12571 -0.146695 1.062 208 188 164 255 
0.129083 -0.147241 1.066 208 188 164 255 
0.131982 -0.147234 1.066 212 191 169 255 
0.134375 -0.146674 1.062 214 193 171 255 
0.137133 -0.146529 1.061 211 188 166 255 
0.140149 -0.14666 1.062 214 193 173 255 
0.143305 -0.146928 1.064 220 199 179 255 
0.146196 -0.146921 1.064 211 190 170 255 
0.149228 -0.147051 1.065 211 190 170 255 
0.151978 -0.146906 1.064 215 194 174 255 
0.15516 -0.147174 1.066 220 199 179 255 
0.158352 -0.147442 1.068 219 198 176 255 
-0.0941282 -0.149366 1.06 215 191 163 255 
-0.0915855 -0.149935 1.064 215 191 163 255 
-0.0886875 -0.14994 1.064 217 193 165 255 
-0.0856278 -0.149663 1.062 217 193 165 255 
-0.0825788 -0.149386 1.06 216 192 166 255 
-0.0798411 -0.149673 1.062 215 191 165 255 
-0.0765851 -0.148973 1.057 212 188 162 255 
-0.073635 -0.148836 1.056 205 181 155 255 
-0.0706901 -0.148699 1.055 208 184 158 255 
-0.067879 -0.148844 1.056 207 185 159 255 
-0.0647545 -0.148284 1.052 210 188 162 255 
-0.0612397 -0.146738 1.041 209 187 161 255 
-0.0576164 -0.144768 1.027 212 190 164 255 
-0.0533753 -0.140965 1 212 190 164 255 
-0.0493826 -0.137444 0.975 206 184 158 255 
-0.0435613 -0.128143 0.909 208 191 172 255 
-0.0402691 -0.125608 0.891 201 191 184 255 
-0.0374571 -0.124341 0.882 202 196 193 255 
-0.0346942 -0.123075 0.873 192 200 209 255 
-0.0320542 -0.12209 0.866 178 195 215 255 
-0.0294865 -0.121246 0.86 62 81 129 255 
-0.0269831 -0.120542 0.855 28 57 136 255 
-0.024478 -0.119698 0.849 15 58 139 255 
-0.0220577 -0.119135 0.845 14 60 136 255 
-0.0195891 -0.11815 0.838 185 211 239 255 
-0.0171586 -0.117164 0.831 198 218 236 255 
-0.0148379 -0.116742 0.828 228 243 255 255 
-0.0125639 -0.116602 0.827 243 254 255 255 
-0.0103328 -0.116884 0.829 245 254 255 255 
-0.00807115 -0.116885 0.829 243 252 255 255 
-0.00585157 -0.117731 0.835 242 253 255 255 
-0.0035821 -0.118014 0.837 240 253 255 255 
-0.00130482 -0.118578 0.841 234 251 255 255 
0.000991943 -0.11886 0.843 234 251 255 255 
0.00330352 -0.119283 0.846 231 249 254 255 
0.00563809 -0.119846 0.85 222 249 254 255 
0.00801318 -0.120692 0.856 223 251 255 255 
0.0104935 -0.122383 0.868 208 237 255 255 
0.0130838 -0.124498 0.883 86 113 150 255 
0.0155452 -0.12492 0.886 3 11 28 255 
0.0179217 -0.124637 0.884 109 112 88 255 
0.0202411 -0.124072 0.88 123 125 97 255 
0.0226416 -0.12407 0.88 21 40 90 255 
0.025042 -0.124069 0.88 3 17 69 255 
0.027567 -0.124631 0.884 14 24 67 255 
0.0301138 -0.125193 0.888 31 41 60 255 
0.032609 -0.125473 0.89 13 23 32 255 
0.0347213 -0.124344 0.882 25 30 36 255 
0.0369162 -0.123637 0.877 19 25 32 255 
0.038994 -0.122648 0.87 0 6 60 255 
0.0412237 -0.122222 0.867 8 67 177 255 
0.0434369 -0.121797 0.864 3 70 179 255 
0.0456337 -0.121371 0.861 185 231 255 255 
0.0528588 -0.121785 0.864 241 252 255 255 
0.0554055 -0.122205 0.867 243 251 255 255 
0.0578352 -0.122343 0.868 243 252 255 255 
0.0604088 -0.122762 0.871 247 252 255 255 
0.0632869 -0.123745 0.878 224 229 239 255 
0.066577 -0.125433 0.89 200 204 218 255 
0.070475 -0.128106 0.909 191 197 213 255 
0.0751985 -0.132048 0.937 192 198 214 255 
0.081402 -0.138244 0.981 193 201 218 255 
0.0876736 -0.144158 1.023 193 201 218 255 
0.0924936 -0.147394 1.046 192 200 216 255 
0.0959802 -0.148375 1.053 178 179 185 255 
0.0989413 -0.14851 1.054 191 185 183 255 
0.101908 -0.148646 1.055 208 192 177 255 
0.104978 -0.148922 1.057 209 191 175 255 
0.10806 -0.149197 1.059 211 193 177 255 
0.111152 -0.149473 1.061 212 191 169 255 
0.114254 -0.149749 1.063 213 192 170 255 
0.117036 -0.149601 1.062 211 190 168 255 
0.1197 -0.149313 1.06 209 188 166 255 
0.122352 -0.149025 1.058 208 188 164 255 
0.125585 -0.14944 1.061 214 194 170 255 
0.128955 -0.149997 1.065 217 197 173 255 
0.131728 -0.149849 1.064 208 187 165 255 
0.133988 -0.149138 1.059 208 187 165 255 
0.136738 -0.14899 1.058 215 194 174 255 
0.139746 -0.149123 1.059 209 188 168 255 
0.143028 -0.149538 1.062 213 192 172 255 
0.145639 -0.149249 1.06 222 201 181 255 
0.14866 -0.149382 1.061 216 195 175 255 
0.151399 -0.149233 1.06 211 190 170 255 
0.154424 -0.149366 1.061 213 192 172 255 
0.157009 -0.149077 1.059 217 196 174 255 
-0.0937676 -0.151673 1.056 214 190 162 255 
-0.0908917 -0.151678 1.056 215 191 163 255 
-0.0880156 -0.151683 1.056 214 190 162 255 
-0.0850585 -0.151545 1.055 217 193 167 255 
-0.0824182 -0.151981 1.058 218 194 168 255 
-0.079611 -0.152129 1.059 213 191 165 255 
-0.0765806 -0.151846 1.057 208 186 160 255 
-0.0734215 -0.151276 1.053 206 182 156 255 
-0.070552 -0.15128 1.053 201 177 151 255 
-0.0675536 -0.150997 1.051 213 189 161 255 
-0.0644429 -0.150426 1.047 214 190 162 255 
-0.0610008 -0.148993 1.037 211 189 161 255 
-0.0575569 -0.147417 1.026 214 192 166 255 
-0.0535856 -0.144259 1.004 209 187 161 255 
-0.0488226 -0.138514 0.964 209 187 161 255 
-0.0436066 -0.130758 0.91 207 188 168 255 
-0.0404475 -0.128605 0.895 208 193 180 255 
-0.0376672 -0.127458 0.887 203 197 194 255 
-0.0348113 -0.125879 0.876 189 199 208 255 
-0.0322003 -0.125019 0.87 181 195 212 255 
-0.0296562 -0.124303 0.865 68 86 129 255 
-0.0271077 -0.123442 0.859 20 53 124 255 
-0.0245918 -0.122581 0.853 79 115 160 255 
-0.0220564 -0.121433 0.845 19 49 112 255 
-0.0196113 -0.120572 0.839 137 168 225 255 
-0.0172195 -0.119855 0.834 190 215 237 255 
-0.0148908 -0.119425 0.831 198 222 240 255 
-0.0125784 -0.118994 0.828 239 253 255 255 
-0.0103072 -0.118851 0.827 241 253 255 255 
-0.00806093 -0.118996 0.828 243 254 255 255 
-0.0058372 -0.119715 0.833 239 252 255 255 
-0.00358617 -0.120434 0.838 235 250 255 255 
-0.00130629 -0.121009 0.842 230 251 255 255 
0.000996589 -0.121727 0.847 226 249 253 255 
0.00330722 -0.121727 0.847 223 248 252 255 
0.00563774 -0.122158 0.85 220 249 254 255 
0.00799397 -0.122732 0.854 222 248 255 255 
0.0104687 -0.124456 0.866 215 242 255 255 
0.0130533 -0.126611 0.881 178 204 232 255 
0.0155618 -0.127473 0.887 0 21 51 255 
0.0179206 -0.127041 0.884 60 77 83 255 
0.0202169 -0.126321 0.879 176 178 116 255 
0.0225888 -0.126176 0.878 89 100 93 255 
0.025012 -0.126318 0.879 35 57 85 255 
0.0275342 -0.126891 0.883 72 90 106 255 
0.0301798 -0.127896 0.89 119 135 109 255 
0.0329368 -0.129187 0.899 78 88 73 255 
0.0356246 -0.130047 0.905 21 28 27 255 
0.0373349 -0.127458 0.887 23 26 30 255 
0.0393502 -0.126163 0.878 14 18 28 255 
0.0412688 -0.124723 0.868 16 26 61 255 
0.0435852 -0.124577 0.867 13 64 163 255 
0.0457899 -0.124143 0.864 56 108 179 255 
0.0481453 -0.124141 0.864 161 188 224 255 
0.0504421 -0.123994 0.863 185 204 224 255 
0.0529169 -0.124278 0.865 188 202 219 255 
0.0554662 -0.124706 0.868 190 205 220 255 
0.0581649 -0.125421 0.873 189 202 215 255 
0.0609601 -0.126279 0.879 194 203 216 255 
0.064004 -0.127569 0.888 195 202 213 255 
0.0675455 -0.12972 0.903 196 200 210 255 
0.072254 -0.133881 0.932 194 198 208 255 
0.0786449 -0.140772 0.98 194 198 208 255 
0.0846333 -0.146513 1.02 194 198 208 255 
0.0892968 -0.149668 1.042 194 197 204 255 
0.0931072 -0.151243 1.053 170 169 175 255 
0.0962481 -0.151668 1.056 169 160 155 255 
0.0991234 -0.151662 1.056 205 188 176 255 
0.102192 -0.151944 1.058 207 189 173 255 
0.105072 -0.151938 1.058 211 194 175 255 
0.108156 -0.152219 1.06 213 194 174 255 
0.111041 -0.152213 1.06 214 195 173 255 
0.113925 -0.152207 1.06 215 194 172 255 
0.116479 -0.15177 1.057 211 190 168 255 
0.119355 -0.151763 1.057 213 192 170 255 
0.122345 -0.1519 1.058 210 190 166 255 
0.12546 -0.15218 1.06 207 187 163 255 
0.128464 -0.152317 1.061 212 191 169 255 
0.131101 -0.152022 1.059 216 195 173 255 
0.133475 -0.151441 1.055 211 190 170 255 
0.136213 -0.15129 1.054 210 189 169 255 
0.13921 -0.151426 1.055 210 189 169 255 
0.142078 -0.151419 1.055 216 195 175 255 
0.144945 -0.151411 1.055 212 191 171 255 
0.148091 -0.15169 1.057 218 197 177 255 
0.15082 -0.151539 1.056 220 198 180 255 
0.153689 -0.151531 1.056 214 193 173 255 
-0.0934958 -0.154104 1.053 214 190 162 255 
-0.09037 -0.15367 1.05 218 194 166 255 
-0.0875103 -0.153675 1.05 215 191 163 255 
-0.084731 -0.153827 1.051 214 190 164 255 
-0.0821018 -0.154271 1.054 215 191 165 255 
-0.0792304 -0.154276 1.054 215 193 167 255 
-0.0762863 -0.154134 1.053 216 194 168 255 
-0.0730686 -0.153407 1.048 216 192 166 255 
-0.0702128 -0.153411 1.048 212 188 162 255 
-0.0670997 -0.152829 1.044 212 188 160 255 
-0.0640697 -0.152394 1.041 214 190 162 255 
-0.0606442 -0.150934 1.031 211 189 161 255 
-0.0573851 -0.149767 1.023 209 187 161 255 
-0.0536358 -0.147135 1.005 210 188 162 255 
-0.0488196 -0.141135 0.964 207 184 161 255 
-0.0437477 -0.133671 0.913 204 183 163 255 
-0.0405806 -0.131478 0.898 205 190 177 255 
-0.0377923 -0.130309 0.89 197 198 194 255 
-0.0350873 -0.129286 0.883 186 195 206 255 
-0.0323834 -0.128117 0.875 187 199 209 255 
-0.0298601 -0.127533 0.871 136 153 182 255 
-0.0272323 -0.126363 0.863 45 67 127 255 
-0.0247056 -0.125486 0.857 181 199 242 255 
-0.0221334 -0.12417 0.848 175 198 228 255 
-0.0196802 -0.123293 0.842 25 59 126 255 
-0.0172391 -0.122269 0.835 176 200 228 255 
-0.0149078 -0.121831 0.832 190 213 235 255 
-0.0125776 -0.121246 0.828 217 232 245 255 
-0.0102941 -0.120954 0.826 239 253 255 255 
-0.00802149 -0.120661 0.824 241 254 255 255 
-0.00580881 -0.121394 0.829 240 253 255 255 
-0.00357739 -0.122419 0.836 235 250 255 255 
-0.00130311 -0.123005 0.84 228 249 253 255 
0.000994175 -0.123737 0.845 224 249 253 255 
0.00330312 -0.123884 0.846 222 249 254 255 
0.0056374 -0.124469 0.85 221 250 254 255 
0.00800284 -0.125201 0.855 222 249 254 255 
0.0104681 -0.126811 0.866 226 252 255 255 
0.0130525 -0.129007 0.881 218 243 255 255 
0.0156135 -0.130324 0.89 139 151 158 255 
0.0180208 -0.130176 0.889 117 120 89 255 
0.0203306 -0.129443 0.884 164 164 84 255 
0.022716 -0.129295 0.883 179 181 93 255 
0.0250674 -0.129001 0.881 181 191 116 255 
0.0275949 -0.129585 0.885 176 185 118 255 
0.0301441 -0.130169 0.889 170 176 131 255 
0.0329348 -0.131631 0.899 140 149 130 255 
0.0356225 -0.132508 0.905 55 59 69 255 
0.0377114 -0.131187 0.896 18 21 27 255 
0.0394375 -0.128843 0.88 18 23 30 255 
0.0412663 -0.127083 0.868 5 11 28 255 
0.0437334 -0.127373 0.87 7 46 136 255 
0.0459991 -0.127078 0.868 8 59 156 255 
0.0485325 -0.127514 0.871 136 170 213 255 
0.0509067 -0.127511 0.871 178 198 222 255 
0.053403 -0.127801 0.873 188 204 220 255 
0.0558463 -0.127944 0.874 190 204 221 255 
0.0585612 -0.128672 0.879 190 203 218 255 
0.0614419 -0.129693 0.886 192 203 218 255 
0.0649371 -0.131885 0.901 191 200 213 255 
0.0692619 -0.135541 0.926 194 199 210 255 
0.0755056 -0.142562 0.974 194 199 210 255 
0.0817698 -0.149144 1.019 191 196 207 255 
0.0862877 -0.152213 1.04 189 194 201 255 
0.0898058 -0.153378 1.048 153 152 158 255 
0.0930134 -0.153958 1.052 148 144 144 255 
0.095878 -0.153953 1.052 203 186 180 255 
0.0988361 -0.154094 1.053 209 188 176 255 
0.101896 -0.15438 1.055 208 190 174 255 
0.104867 -0.154521 1.056 213 193 175 255 
0.108149 -0.1551 1.06 211 192 172 255 
0.11072 -0.154655 1.057 212 193 171 255 
0.113489 -0.154502 1.056 211 192 170 255 
0.116031 -0.154057 1.053 215 194 172 255 
0.119009 -0.154196 1.054 214 193 171 255 
0.122107 -0.154482 1.056 209 188 166 255 
0.125216 -0.154768 1.058 208 187 165 255 
0.127972 -0.154614 1.057 213 192 170 255 
0.130599 -0.154315 1.055 210 189 167 255 
0.133088 -0.153868 1.052 212 191 171 255 
0.136077 -0.154007 1.053 216 195 175 255 
0.138939 -0.154 1.053 211 190 170 255 
0.141666 -0.153846 1.052 209 188 168 255 
0.144525 -0.153838 1.052 215 194 174 255 
0.147803 -0.154269 1.055 215 194 174 255 
0.150384 -0.153969 1.053 210 189 169 255 
0.152953 -0.153668 1.051 219 198 178 255 
-0.0932239 -0.156518 1.05 212 188 160 255 
-0.0901065 -0.156077 1.047 216 192 164 255 
-0.0872551 -0.156082 1.047 215 191 163 255 
-0.0844841 -0.156236 1.048 211 187 161 255 
-0.0817853 -0.156539 1.05 213 189 163 255 
-0.0790001 -0.156693 1.051 215 190 167 255 
-0.0762093 -0.156847 1.052 215 192 169 255 
-0.0732036 -0.156553 1.05 213 190 167 255 
-0.0702755 -0.156408 1.049 213 189 163 255 
-0.0670314 -0.155518 1.043 210 186 158 255 
-0.0640043 -0.155075 1.04 210 186 158 255 
-0.0607581 -0.154035 1.033 212 188 162 255 
-0.0575499 -0.152994 1.026 208 185 162 255 
-0.0537392 -0.150165 1.007 205 182 159 255 
-0.0495762 -0.145992 0.979 209 186 164 255 
-0.0440325 -0.137048 0.919 204 183 163 255 
-0.0405781 -0.133919 0.898 205 182 162 255 
-0.03779 -0.132728 0.89 204 194 185 255 
-0.0351646 -0.131985 0.885 189 194 200 255 
-0.0325294 -0.131092 0.879 189 196 207 255 
-0.0300296 -0.130646 0.876 185 199 216 255 
-0.0273883 -0.129455 0.868 68 84 127 255 
-0.0248194 -0.128413 0.861 140 159 209 255 
-0.0221842 -0.126774 0.85 173 193 227 255 
-0.0197024 -0.125731 0.843 46 82 159 255 
-0.0172587 -0.124688 0.836 84 116 179 255 
-0.0149248 -0.124242 0.833 184 208 244 255 
-0.012592 -0.123646 0.829 196 215 235 255 
-0.0102685 -0.122901 0.824 228 244 255 255 
-0.00799179 -0.122454 0.821 241 253 255 255 
-0.00577341 -0.122902 0.824 241 254 255 255 
-0.00356433 -0.124245 0.833 238 253 255 255 
-0.00130458 -0.125438 0.841 230 247 252 255 
0.000997642 -0.126482 0.848 226 247 251 255 
0.00331853 -0.12678 0.85 223 248 253 255 
0.00564368 -0.126929 0.851 221 248 253 255 
0.00799298 -0.127376 0.854 222 248 255 255 
0.0104432 -0.128867 0.864 222 248 255 255 
0.0130221 -0.131104 0.879 222 247 255 255 
0.0156652 -0.133191 0.893 160 181 193 255 
0.0181616 -0.133637 0.896 106 112 104 255 
0.0205134 -0.133039 0.892 170 163 90 255 
0.0228432 -0.132441 0.888 184 176 87 255 
0.0251512 -0.131843 0.884 180 179 88 255 
0.0275308 -0.131692 0.883 133 131 69 255 
0.0300066 -0.131989 0.885 18 30 61 255 
0.032603 -0.132733 0.89 3 11 55 255 
0.0353448 -0.133924 0.898 49 58 99 255 
0.0379195 -0.134369 0.901 27 37 74 255 
0.0401969 -0.13377 0.897 17 22 28 255 
0.0416441 -0.130636 0.876 16 19 25 255 
0.043982 -0.130484 0.875 7 24 80 255 
0.0463143 -0.130332 0.874 22 61 143 255 
0.0488081 -0.130627 0.876 91 130 186 255 
0.0512542 -0.130773 0.877 163 189 217 255 
0.0537057 -0.130919 0.878 186 201 220 255 
0.0562262 -0.131214 0.88 187 202 217 255 
0.059024 -0.132105 0.886 191 200 213 255 
0.0621316 -0.133593 0.896 193 198 209 255 
0.0660863 -0.13672 0.917 193 198 205 255 
0.0716511 -0.142828 0.958 193 198 205 255 
0.0782917 -0.150576 1.01 193 198 205 255 
0.0830488 -0.154299 1.035 195 196 202 255 
0.0865315 -0.155486 1.043 193 189 189 255 
0.0895434 -0.155779 1.045 186 180 174 255 
0.0926543 -0.156221 1.048 202 186 176 255 
0.0955078 -0.156215 1.048 207 191 176 255 
0.0986426 -0.156657 1.051 210 192 176 255 
0.101697 -0.156949 1.053 209 189 171 255 
0.104861 -0.15739 1.056 212 192 174 255 
0.107939 -0.157682 1.058 211 192 172 255 
0.110609 -0.157377 1.056 213 194 174 255 
0.113052 -0.156775 1.052 211 192 170 255 
0.115804 -0.156619 1.051 215 196 174 255 
0.118663 -0.156613 1.051 213 194 172 255 
0.121638 -0.156755 1.052 212 193 171 255 
0.124618 -0.156897 1.053 208 189 169 255 
0.127239 -0.156592 1.051 208 189 167 255 
0.130097 -0.156585 1.051 210 191 169 255 
0.132701 -0.156279 1.049 209 190 168 255 
0.135811 -0.15657 1.051 208 189 167 255 
0.138536 -0.156413 1.05 216 195 173 255 
0.141254 -0.156256 1.049 214 193 171 255 
0.14438 -0.156547 1.051 211 190 168 255 
0.147375 -0.156688 1.052 214 193 171 255 
0.15009 -0.156531 1.051 215 194 174 255 
0.152799 -0.156374 1.05 210 189 167 255 
-0.092952 -0.158916 1.047 208 184 156 255 
-0.0902732 -0.159225 1.049 213 189 161 255 
-0.0871666 -0.158775 1.046 214 190 164 255 
-0.0843984 -0.158932 1.047 212 188 162 255 
-0.0815467 -0.158937 1.047 210 185 162 255 
-0.0789202 -0.159397 1.05 209 184 161 255 
-0.0760598 -0.159402 1.05 209 186 163 255 
-0.0731991 -0.159406 1.05 212 189 166 255 
-0.0701372 -0.158955 1.047 214 189 166 255 
-0.066963 -0.158201 1.042 209 185 159 255 
-0.0639388 -0.157749 1.039 211 187 161 255 
-0.060872 -0.157146 1.035 207 182 159 255 
-0.0576024 -0.155935 1.027 205 180 157 255 
-0.0542162 -0.154268 1.016 207 184 161 255 
-0.0507884 -0.152297 1.003 201 178 156 255 
-0.0454192 -0.143949 0.948 205 182 160 255 
-0.0411178 -0.138181 0.91 202 179 157 255 
-0.0380424 -0.136058 0.896 191 178 165 255 
-0.0353611 -0.135149 0.89 198 193 197 255 
-0.0327124 -0.13424 0.884 189 193 203 255 
-0.0301649 -0.133635 0.88 182 195 210 255 
-0.0275128 -0.132422 0.872 187 201 218 255 
-0.0249043 -0.131208 0.864 43 61 115 255 
-0.0223133 -0.129843 0.855 40 69 134 255 
-0.0197712 -0.128478 0.846 16 55 137 255 
-0.0173195 -0.127416 0.839 9 52 124 255 
-0.0149776 -0.126961 0.836 119 152 199 255 
-0.0126064 -0.126051 0.83 190 209 231 255 
-0.0102804 -0.125292 0.825 204 220 236 255 
-0.00798155 -0.124534 0.82 239 253 255 255 
-0.00578006 -0.125293 0.825 241 253 255 255 
-0.00355554 -0.126205 0.831 237 254 255 255 
-0.00130294 -0.127572 0.84 235 252 255 255 
0.000995227 -0.128483 0.846 229 247 252 255 
0.00331832 -0.129091 0.85 224 247 251 255 
0.00564995 -0.129394 0.852 221 248 253 255 
0.00799248 -0.129697 0.854 220 248 255 255 
0.0104063 -0.13076 0.861 222 248 255 255 
0.0129472 -0.132733 0.874 224 251 255 255 
0.0156291 -0.135314 0.891 199 225 244 255 
0.0182618 -0.136832 0.901 47 66 86 255 
0.020696 -0.136679 0.9 76 79 67 255 
0.0229961 -0.135766 0.894 171 163 86 255 
0.0252065 -0.13455 0.886 187 182 101 255 
0.0274979 -0.133941 0.882 173 172 105 255 
0.0298691 -0.133787 0.881 58 76 110 255 
0.0324545 -0.134544 0.886 2 20 74 255 
0.0350671 -0.135301 0.891 9 28 86 255 
0.0380855 -0.137425 0.905 22 40 94 255 
0.0408217 -0.138334 0.911 18 22 32 255 
0.0422595 -0.13499 0.889 22 24 26 255 
0.0442808 -0.133773 0.881 12 16 26 255 
0.0466293 -0.133618 0.88 17 48 121 255 
0.0491394 -0.133919 0.882 27 66 150 255 
0.0516017 -0.134068 0.883 140 165 198 255 
0.0541305 -0.134368 0.885 183 197 214 255 
0.0568617 -0.135124 0.89 189 200 215 255 
0.059953 -0.136638 0.9 189 198 211 255 
0.063584 -0.139215 0.917 191 196 207 255 
0.0686766 -0.144677 0.953 192 197 204 255 
0.0748626 -0.151959 1.001 192 197 204 255 
0.0797597 -0.156205 1.029 190 195 202 255 
0.0835252 -0.158022 1.041 191 190 196 255 
0.0866093 -0.158472 1.044 189 183 177 255 
0.0893667 -0.158315 1.043 192 180 173 255 
0.0922951 -0.158461 1.044 196 180 164 255 
0.0952287 -0.158607 1.045 202 184 168 255 
0.0983552 -0.159057 1.048 206 189 170 255 
0.101305 -0.159203 1.049 207 190 171 255 
0.104259 -0.159348 1.05 212 192 174 255 
0.107219 -0.159494 1.051 211 192 172 255 
0.110183 -0.159639 1.052 210 191 171 255 
0.112938 -0.159481 1.051 211 192 172 255 
0.115467 -0.159019 1.048 208 189 169 255 
0.118092 -0.158709 1.046 211 192 170 255 
0.120937 -0.158702 1.046 210 191 169 255 
0.1239 -0.158847 1.047 212 193 171 255 
0.126626 -0.158688 1.046 211 192 170 255 
0.129842 -0.159136 1.049 207 188 166 255 
0.132693 -0.159128 1.049 211 192 170 255 
0.135803 -0.159424 1.051 211 192 170 255 
0.138396 -0.159113 1.049 205 186 164 255 
0.141112 -0.158954 1.048 210 191 169 255 
0.14396 -0.158946 1.048 215 194 172 255 
0.146947 -0.159089 1.049 212 191 169 255 
0.149939 -0.159233 1.05 211 190 168 255 
0.1525 -0.158921 1.048 215 194 172 255 
-0.0925913 -0.161142 1.043 207 183 155 255 
-0.0899235 -0.161457 1.045 213 189 163 255 
-0.0869113 -0.161153 1.043 209 185 157 255 
-0.0842321 -0.161467 1.045 210 186 160 255 
-0.0815417 -0.161781 1.047 214 190 164 255 
-0.0789154 -0.16225 1.05 214 189 166 255 
-0.0759827 -0.1621 1.049 211 186 163 255 
-0.0729855 -0.161796 1.047 213 188 165 255 
-0.069932 -0.161336 1.044 211 186 163 255 
-0.0670874 -0.161341 1.044 207 182 159 255 
-0.0641195 -0.161036 1.042 205 180 157 255 
-0.0611622 -0.160731 1.04 206 181 158 255 
-0.0577671 -0.159189 1.03 201 176 153 255 
-0.0548531 -0.158883 1.028 197 172 150 255 
-0.0517473 -0.157959 1.022 204 179 157 255 
-0.0483387 -0.155953 1.009 201 178 156 255 
-0.0424706 -0.145291 0.94 198 177 157 255 
-0.0382947 -0.13942 0.902 200 178 160 255 
-0.0353986 -0.137722 0.891 195 174 160 255 
-0.0327843 -0.136952 0.886 192 192 200 255 
-0.0301972 -0.136181 0.881 188 195 208 255 
-0.0275111 -0.134791 0.872 176 186 203 255 
-0.0248451 -0.133247 0.862 70 91 145 255 
-0.0222858 -0.132012 0.854 29 55 133 255 
-0.0198401 -0.131241 0.849 17 56 132 255 
-0.0174629 -0.130778 0.846 80 113 172 255 
-0.0150841 -0.130161 0.842 164 188 216 255 
-0.0126815 -0.12908 0.835 192 212 230 255 
-0.0103295 -0.128153 0.829 195 215 231 255 
-0.00801997 -0.12738 0.824 214 229 242 255 
-0.00577268 -0.127381 0.824 239 253 255 255 
-0.0035382 -0.127845 0.827 239 254 255 255 
-0.00129666 -0.129236 0.836 239 254 255 255 
0.00099281 -0.130473 0.844 235 252 255 255 
0.0033142 -0.131246 0.849 228 245 250 255 
0.00563633 -0.1314 0.85 222 247 252 255 
0.00797325 -0.131709 0.852 220 248 255 255 
0.0103573 -0.132481 0.857 219 247 255 255 
0.0128723 -0.134336 0.869 220 248 255 255 
0.0155404 -0.136963 0.886 215 243 255 255 
0.0182404 -0.139126 0.9 156 184 207 255 
0.0207177 -0.139279 0.901 41 53 70 255 
0.0230204 -0.13835 0.895 150 144 99 255 
0.0252334 -0.137112 0.887 96 91 94 255 
0.0274961 -0.136337 0.882 173 175 139 255 
0.0297994 -0.135872 0.879 174 179 130 255 
0.0322327 -0.136024 0.88 107 117 106 255 
0.0348287 -0.136795 0.885 32 60 113 255 
0.0379989 -0.139575 0.903 23 51 104 255 
0.0416257 -0.143591 0.929 24 43 93 255 
0.0438729 -0.142661 0.923 21 24 28 255 
0.0451325 -0.138794 0.898 26 24 24 255 
0.0473152 -0.138019 0.893 62 59 71 255 
0.0494706 -0.137243 0.888 44 73 140 255 
0.0518907 -0.13724 0.888 119 143 185 255 
0.0544941 -0.1377 0.891 176 189 212 255 
0.0576887 -0.139551 0.903 189 196 209 255 
0.0616812 -0.143102 0.926 192 197 204 255 
0.0664921 -0.148197 0.959 192 197 204 255 
0.0722753 -0.154992 1.003 192 197 204 255 
0.0767276 -0.158542 1.026 198 195 198 255 
0.0804524 -0.160391 1.038 193 187 185 255 
0.0835201 -0.16085 1.041 188 177 172 255 
0.0863551 -0.160845 1.041 193 176 164 255 
0.0892756 -0.160994 1.042 196 178 162 255 
0.0922012 -0.161143 1.043 203 183 165 255 
0.0950408 -0.161137 1.043 200 183 164 255 
0.0981616 -0.161595 1.046 202 185 166 255 
0.101009 -0.161589 1.046 208 191 172 255 
0.103955 -0.161737 1.047 206 189 170 255 
0.106702 -0.161576 1.046 212 192 174 255 
0.109653 -0.161724 1.047 210 191 171 255 
0.112394 -0.161563 1.046 210 191 171 255 
0.11513 -0.161402 1.045 210 191 171 255 
0.11786 -0.161241 1.044 208 189 169 255 
0.120583 -0.16108 1.043 211 192 170 255 
0.123538 -0.161227 1.044 212 193 171 255 
0.126498 -0.161374 1.045 212 191 169 255 
0.129711 -0.16183 1.048 216 195 173 255 
0.132433 -0.161668 1.047 206 187 167 255 
0.135408 -0.161815 1.048 210 191 171 255 
0.138124 -0.161653 1.047 211 192 172 255 
0.140835 -0.16149 1.046 209 190 168 255 
0.143814 -0.161637 1.047 208 189 167 255 
0.146659 -0.161629 1.047 214 193 171 255 
0.149645 -0.161775 1.048 215 194 172 255 
0.152346 -0.161612 1.047 211 190 168 255 
-0.0924081 -0.163661 1.041 213 189 161 255 
-0.089746 -0.163981 1.043 205 181 153 255 
-0.0868226 -0.163829 1.042 209 185 159 255 
-0.0840657 -0.163991 1.043 210 186 160 255 
-0.0812252 -0.163997 1.043 212 187 164 255 
-0.0784595 -0.164159 1.044 211 186 163 255 
-0.0755434 -0.164006 1.043 212 187 164 255 
-0.072493 -0.163539 1.04 206 181 158 255 
-0.0695257 -0.163229 1.038 201 176 153 255 
-0.0666976 -0.163233 1.038 197 172 149 255 
-0.0639308 -0.163395 1.039 198 173 150 255 
-0.0610408 -0.163242 1.038 202 177 154 255 
-0.0577634 -0.161987 1.03 200 175 152 255 
-0.0549563 -0.161991 1.03 198 173 151 255 
-0.0519465 -0.161365 1.026 196 171 148 255 
-0.0492458 -0.161683 1.028 194 169 146 255 
-0.0447268 -0.155709 0.99 197 174 152 255 
-0.039014 -0.144545 0.919 194 173 153 255 
-0.0355155 -0.140615 0.894 191 174 164 255 
-0.0328562 -0.139673 0.888 180 184 201 255 
-0.0302981 -0.139046 0.884 175 185 202 255 
-0.0276355 -0.13779 0.876 102 114 141 255 
-0.02493 -0.136061 0.865 37 54 120 255 
-0.0224148 -0.135119 0.859 27 52 127 255 
-0.0200258 -0.134806 0.857 70 95 169 255 
-0.0176269 -0.134335 0.854 148 170 204 255 
-0.0152085 -0.13355 0.849 187 206 226 255 
-0.0127263 -0.13182 0.838 188 208 226 255 
-0.0103538 -0.13072 0.831 193 213 229 255 
-0.00803892 -0.129934 0.826 204 219 234 255 
-0.00579332 -0.130092 0.827 230 246 255 255 
-0.0035337 -0.129935 0.826 239 254 255 255 
-0.00128727 -0.130564 0.83 239 254 255 255 
0.000984512 -0.131665 0.837 236 253 255 255 
0.00329447 -0.132766 0.844 232 249 254 255 
0.0056227 -0.133395 0.848 224 246 252 255 
0.00797274 -0.134024 0.852 221 247 255 255 
0.0103446 -0.134653 0.856 220 248 255 255 
0.0128122 -0.136067 0.865 219 246 255 255 
0.0154342 -0.138426 0.88 210 239 254 255 
0.0181176 -0.140627 0.894 145 172 194 255 
0.0205784 -0.140783 0.895 127 127 109 255 
0.0229417 -0.14031 0.892 120 118 98 255 
0.0252602 -0.139679 0.888 9 27 63 255 
0.0276191 -0.139363 0.886 6 9 25 255 
0.0298992 -0.138732 0.882 151 155 110 255 
0.0323405 -0.138887 0.883 166 173 142 255 
0.0349445 -0.139672 0.888 111 122 117 255 
0.0384173 -0.143601 0.913 41 59 92 255 
0.0424295 -0.148946 0.947 41 59 92 255 
0.0455812 -0.150831 0.959 9 27 70 255 
0.046989 -0.147053 0.935 36 33 29 255 
0.0484248 -0.143747 0.914 102 95 96 255 
0.0505259 -0.142643 0.907 104 105 127 255 
0.0528807 -0.142326 0.905 36 65 130 255 
0.0556526 -0.143109 0.91 138 159 201 255 
0.0594098 -0.14625 0.93 178 187 208 255 
0.0644081 -0.152065 0.967 184 193 214 255 
0.0696078 -0.157879 1.004 188 192 202 255 
0.073784 -0.161019 1.024 191 194 198 255 
0.0772463 -0.16243 1.033 196 191 185 255 
0.0802924 -0.162896 1.036 188 176 169 255 
0.0833545 -0.163363 1.039 189 168 158 255 
0.0861839 -0.163358 1.039 193 171 155 255 
0.0891844 -0.163667 1.041 194 172 154 255 
0.0920187 -0.163661 1.041 197 176 156 255 
0.0948528 -0.163656 1.041 199 180 160 255 
0.0977803 -0.163807 1.042 207 187 169 255 
0.100713 -0.163958 1.043 207 190 171 255 
0.103452 -0.163795 1.042 207 190 171 255 
0.10639 -0.163946 1.043 207 187 169 255 
0.109228 -0.163939 1.043 207 187 169 255 
0.112173 -0.16409 1.044 207 188 168 255 
0.114903 -0.163926 1.043 206 187 167 255 
0.117627 -0.163762 1.042 211 190 170 255 
0.12023 -0.16344 1.04 214 193 171 255 
0.123176 -0.16359 1.041 211 190 168 255 
0.126007 -0.163583 1.041 210 189 167 255 
0.129084 -0.16389 1.043 212 191 169 255 
0.132046 -0.164039 1.044 209 190 168 255 
0.135013 -0.164189 1.045 212 193 173 255 
0.137589 -0.163867 1.043 210 191 171 255 
0.140288 -0.163702 1.042 211 192 172 255 
0.143119 -0.163694 1.042 212 193 173 255 
0.14609 -0.163843 1.043 207 188 166 255 
0.149066 -0.163992 1.044 210 189 167 255 
0.151756 -0.163826 1.043 217 196 174 255 
-0.0919586 -0.165688 1.036 219 195 169 255 
-0.0893102 -0.166013 1.038 214 190 164 255 
-0.0866506 -0.166339 1.04 206 182 156 255 
-0.0838993 -0.166504 1.041 210 186 160 255 
-0.0809865 -0.166349 1.04 207 182 159 255 
-0.0780789 -0.166194 1.039 208 183 160 255 
-0.0751765 -0.166039 1.038 212 187 164 255 
-0.0721399 -0.165564 1.035 207 182 159 255 
-0.0692534 -0.165409 1.034 201 176 153 255 
-0.0665006 -0.165573 1.035 197 172 149 255 
-0.0636807 -0.165577 1.035 199 174 151 255 
-0.0607429 -0.165261 1.033 197 172 149 255 
-0.0577037 -0.164625 1.029 198 173 150 255 
-0.0548995 -0.164629 1.029 195 170 147 255 
-0.0519432 -0.164152 1.026 195 170 147 255 
-0.0491947 -0.164315 1.027 191 166 144 255 
-0.046034 -0.163038 1.019 186 160 141 255 
-0.0407519 -0.153601 0.96 189 169 153 255 
-0.0360296 -0.145123 0.907 141 148 201 255 
-0.0330761 -0.143046 0.894 25 84 174 255 
-0.0305703 -0.142728 0.892 135 166 223 255 
-0.027823 -0.14113 0.882 119 136 165 255 
-0.0250724 -0.139211 0.87 39 55 116 255 
-0.0224655 -0.137773 0.861 90 110 154 255 
-0.0201179 -0.137774 0.861 159 183 211 255 
-0.0177083 -0.137295 0.858 186 206 222 255 
-0.0152792 -0.136496 0.853 189 207 223 255 
-0.0128166 -0.135057 0.844 192 208 224 255 
-0.0104403 -0.134098 0.838 193 211 227 255 
-0.00808705 -0.132978 0.831 196 214 230 255 
-0.00578594 -0.132178 0.826 204 220 235 255 
-0.00352063 -0.131699 0.823 235 249 255 255 
-0.00127633 -0.131699 0.823 239 254 255 255 
0.000976215 -0.132819 0.83 239 254 255 255 
0.00327083 -0.134099 0.838 235 252 255 255 
0.00560908 -0.135379 0.846 231 248 253 255 
0.00797222 -0.136339 0.852 225 245 253 255 
0.0103439 -0.136978 0.856 222 245 255 255 
0.0128114 -0.138417 0.865 222 245 255 255 
0.0153805 -0.140337 0.877 225 250 255 255 
0.0180354 -0.142416 0.89 197 223 241 255 
0.0204161 -0.142095 0.888 58 73 110 255 
0.0227859 -0.141773 0.886 47 61 113 255 
0.0252017 -0.141772 0.886 23 50 115 255 
0.0277108 -0.14225 0.889 8 39 104 255 
0.029965 -0.141448 0.884 80 92 93 255 
0.0324116 -0.141606 0.885 112 120 113 255 
0.0350997 -0.142724 0.892 63 76 99 255 
0.0390039 -0.148321 0.927 42 59 99 255 
0.0439948 -0.157119 0.982 63 76 99 255 
0.0474794 -0.159836 0.999 28 45 85 255 
0.0494987 -0.157593 0.985 17 19 30 255 
0.0510176 -0.15407 0.963 60 55 49 255 
0.0527507 -0.151507 0.947 159 147 140 255 
0.0555066 -0.151983 0.95 140 130 133 255 
0.0587679 -0.153739 0.961 86 98 139 255 
0.0630471 -0.157895 0.987 110 122 163 255 
0.0673345 -0.16173 1.011 144 151 172 255 
0.0710593 -0.163965 1.025 172 169 173 255 
0.0742837 -0.16492 1.031 173 164 161 255 
0.0772414 -0.165235 1.033 179 160 150 255 
0.0802098 -0.16555 1.035 186 161 147 255 
0.0831087 -0.165705 1.036 190 166 148 255 
0.0860127 -0.16586 1.037 190 167 147 255 
0.0889219 -0.166014 1.038 190 167 147 255 
0.0917479 -0.166009 1.038 190 169 149 255 
0.0945736 -0.166003 1.038 195 174 154 255 
0.0974928 -0.166157 1.039 198 179 159 255 
0.100417 -0.166311 1.04 202 182 164 255 
0.103148 -0.166145 1.039 205 185 167 255 
0.105976 -0.166138 1.039 209 189 171 255 
0.108698 -0.165972 1.038 208 188 170 255 
0.111629 -0.166125 1.039 203 183 165 255 
0.114455 -0.166118 1.039 209 188 168 255 
0.117394 -0.166271 1.04 205 184 164 255 
0.120107 -0.166104 1.039 209 188 166 255 
0.123287 -0.166577 1.042 212 191 169 255 
0.125999 -0.166409 1.041 209 188 166 255 
0.128829 -0.166402 1.041 207 187 163 255 
0.131406 -0.166075 1.039 211 192 170 255 
0.134359 -0.166227 1.04 209 190 170 255 
0.136921 -0.165899 1.038 213 196 176 255 
0.139742 -0.165891 1.038 212 193 173 255 
0.142562 -0.165883 1.038 207 188 168 255 
0.145662 -0.166195 1.04 212 193 173 255 
0.148486 -0.166186 1.04 211 190 170 255 
0.151165 -0.166018 1.039 207 186 164 255 
-0.0917753 -0.168176 1.034 213 191 165 255 
-0.0892186 -0.168669 1.037 219 195 169 255 
-0.0864785 -0.168838 1.038 216 192 166 255 
-0.0836522 -0.168843 1.038 204 180 154 255 
-0.080592 -0.16836 1.035 205 180 157 255 
-0.0776982 -0.168203 1.034 209 184 161 255 
-0.074882 -0.168207 1.034 206 181 158 255 
-0.0719262 -0.167887 1.032 205 180 157 255 
-0.069115 -0.167891 1.032 198 174 148 255 
-0.0661109 -0.167407 1.029 193 169 143 255 
-0.0633689 -0.167574 1.03 192 168 142 255 
-0.060445 -0.167253 1.028 192 167 144 255 
-0.0576438 -0.167257 1.028 193 168 145 255 
-0.0547359 -0.166935 1.026 192 167 145 255 
-0.0518386 -0.166613 1.024 192 167 145 255 
-0.0488562 -0.165966 1.02 188 163 141 255 
-0.0458955 -0.165318 1.016 185 162 140 255 
-0.0424047 -0.162555 0.999 184 160 144 255 
-0.037497 -0.153608 0.944 128 134 178 255 
-0.0335178 -0.147427 0.906 15 87 190 255 
-0.0307739 -0.146127 0.898 27 79 166 255 
-0.0280735 -0.144827 0.89 173 190 219 255 
-0.0252725 -0.142713 0.877 83 106 146 255 
-0.0226206 -0.141088 0.867 158 176 200 255 
-0.0201867 -0.140601 0.864 180 198 214 255 
-0.0177484 -0.139951 0.86 187 203 218 255 
-0.0153319 -0.139301 0.856 190 204 221 255 
-0.0128765 -0.138 0.848 192 206 223 255 
-0.0105019 -0.137187 0.843 194 210 226 255 
-0.00811571 -0.135723 0.834 194 212 228 255 
-0.00580657 -0.13491 0.829 202 218 234 255 
-0.0035204 -0.133934 0.823 222 238 248 255 
-0.00127469 -0.133771 0.822 237 253 255 255 
0.00097027 -0.13426 0.825 237 254 255 255 
0.00325501 -0.135724 0.834 237 254 255 255 
0.00561533 -0.137839 0.847 234 250 255 255 
0.00803718 -0.139792 0.859 228 245 255 255 
0.0104882 -0.141256 0.868 226 244 255 255 
0.0129883 -0.14272 0.877 224 244 255 255 
0.0155374 -0.144184 0.886 236 252 255 255 
0.0181152 -0.145484 0.894 227 241 255 255 
0.0204148 -0.144507 0.888 16 29 67 255 
0.0227844 -0.14418 0.886 29 47 101 255 
0.0251715 -0.144015 0.885 17 53 131 255 
0.0277401 -0.144827 0.89 15 53 140 255 
0.0301664 -0.144825 0.89 14 53 135 255 
0.032849 -0.145962 0.897 31 60 127 255 
0.0359237 -0.148564 0.913 24 44 98 255 
0.0402214 -0.155558 0.956 24 44 98 255 
0.0446639 -0.162227 0.997 24 44 98 255 
0.0479991 -0.164339 1.01 22 30 57 255 
0.0509024 -0.164824 1.013 19 20 26 255 
0.0533982 -0.164007 1.008 21 16 10 255 
0.0559779 -0.163515 1.005 112 104 88 255 
0.0588917 -0.164 1.008 176 155 133 255 
0.0621273 -0.165297 1.016 177 154 134 255 
0.0653425 -0.166432 1.023 176 155 133 255 
0.0684624 -0.167241 1.028 177 156 136 255 
0.0714014 -0.167562 1.03 178 156 140 255 
0.074279 -0.16772 1.031 182 156 138 255 
0.0771618 -0.167878 1.032 175 149 130 255 
0.0799723 -0.167873 1.032 179 153 134 255 
0.0828628 -0.16803 1.033 183 158 136 255 
0.0857585 -0.168188 1.034 188 163 141 255 
0.0886594 -0.168345 1.035 189 164 142 255 
0.091477 -0.168339 1.035 190 167 145 255 
0.0945677 -0.168821 1.038 193 170 150 255 
0.097393 -0.168815 1.038 193 170 150 255 
0.100314 -0.168972 1.039 194 173 153 255 
0.102844 -0.168478 1.036 200 178 160 255 
