ply
format ascii 1.0
element vertex 1141
property float x
property float y
property float z
property uchar red
property uchar green
property uchar blue
property uchar alpha
end_header
0.113925 -0.152207 1.060000 215 194 172 0
0.116479 -0.151770 1.057000 211 190 168 0
0.119355 -0.151763 1.057000 213 192 170 0
0.122345 -0.151900 1.058000 210 190 166 0
0.125460 -0.152180 1.060000 207 187 163 0
0.128464 -0.152317 1.061000 212 191 169 0
0.131101 -0.152022 1.059000 216 195 173 0
0.133475 -0.151441 1.055000 211 190 170 0
0.136213 -0.151290 1.054000 210 189 169 0
0.139210 -0.151426 1.055000 210 189 169 0
0.142078 -0.151419 1.055000 216 195 175 0
0.144945 -0.151411 1.055000 212 191 171 0
0.148091 -0.151690 1.057000 218 197 177 0
0.150820 -0.151539 1.056000 220 198 180 0
0.153689 -0.151531 1.056000 214 193 173 0
-0.093496 -0.154104 1.053000 214 190 162 0
-0.090370 -0.153670 1.050000 218 194 166 0
-0.087510 -0.153675 1.050000 215 191 163 0
-0.084731 -0.153827 1.051000 214 190 164 0
-0.082102 -0.154271 1.054000 215 191 165 0
-0.079230 -0.154276 1.054000 215 193 167 0
-0.076286 -0.154134 1.053000 216 194 168 0
-0.073069 -0.153407 1.048000 216 192 166 0
-0.070213 -0.153411 1.048000 212 188 162 0
-0.067100 -0.152829 1.044000 212 188 160 0
-0.064070 -0.152394 1.041000 214 190 162 0
-0.060644 -0.150934 1.031000 211 189 161 0
-0.037792 -0.130309 0.890000 197 198 194 0
-0.035087 -0.129286 0.883000 186 195 206 0
-0.032383 -0.128117 0.875000 187 199 209 0
-0.029860 -0.127533 0.871000 136 153 182 0
-0.027232 -0.126363 0.863000 45 67 127 0
-0.024706 -0.125486 0.857000 181 199 242 0
-0.022133 -0.124170 0.848000 175 198 228 0
-0.019680 -0.123293 0.842000 25 59 126 0
-0.017239 -0.122269 0.835000 176 200 228 0
-0.014908 -0.121831 0.832000 190 213 235 0
-0.012578 -0.121246 0.828000 217 232 245 0
-0.010294 -0.120954 0.826000 239 253 255 0
-0.008021 -0.120661 0.824000 241 254 255 0
-0.005809 -0.121394 0.829000 240 253 255 0
-0.003577 -0.122419 0.836000 235 250 255 0
-0.001303 -0.123005 0.840000 228 249 253 0
0.000994 -0.123737 0.845000 224 249 253 0
0.003303 -0.123884 0.846000 222 249 254 0
0.005637 -0.124469 0.850000 221 250 254 0
0.008003 -0.125201 0.855000 222 249 254 0
0.013052 -0.129007 0.881000 218 243 255 0
0.015614 -0.130324 0.890000 139 151 158 0
0.018021 -0.130176 0.889000 117 120 89 0
0.020331 -0.129443 0.884000 164 164 84 0
0.022716 -0.129295 0.883000 179 181 93 0
0.025067 -0.129001 0.881000 181 191 116 0
0.027595 -0.129585 0.885000 176 185 118 0
0.030144 -0.130169 0.889000 170 176 131 0
0.032935 -0.131631 0.899000 140 149 130 0
0.037711 -0.131187 0.896000 18 21 27 0
0.039438 -0.128843 0.880000 18 23 30 0
0.041266 -0.127083 0.868000 5 11 28 0
0.043733 -0.127373 0.870000 7 46 136 0
0.045999 -0.127078 0.868000 8 59 156 0
0.048532 -0.127514 0.871000 136 170 213 0
0.050907 -0.127511 0.871000 178 198 222 0
0.053403 -0.127801 0.873000 188 204 220 0
0.055846 -0.127944 0.874000 190 204 221 0
0.058561 -0.128672 0.879000 190 203 218 0
0.061442 -0.129693 0.886000 192 203 218 0
0.086288 -0.152213 1.040000 189 194 201 0
0.089806 -0.153378 1.048000 153 152 158 0
0.093013 -0.153958 1.052000 148 144 144 0
0.095878 -0.153953 1.052000 203 186 180 0
0.098836 -0.154094 1.053000 209 188 176 0
0.101896 -0.154380 1.055000 208 190 174 0
0.104867 -0.154521 1.056000 213 193 175 0
0.108149 -0.155100 1.060000 211 192 172 0
0.110720 -0.154655 1.057000 212 193 171 0
0.113489 -0.154502 1.056000 211 192 170 0
0.116031 -0.154057 1.053000 215 194 172 0
0.119009 -0.154196 1.054000 214 193 171 0
0.122107 -0.154482 1.056000 209 188 166 0
0.125216 -0.154768 1.058000 208 187 165 0
0.127972 -0.154614 1.057000 213 192 170 0
0.130599 -0.154315 1.055000 210 189 167 0
0.133088 -0.153868 1.052000 212 191 171 0
0.136077 -0.154007 1.053000 216 195 175 0
0.138939 -0.154000 1.053000 211 190 170 0
0.141666 -0.153846 1.052000 209 188 168 0
0.144525 -0.153838 1.052000 215 194 174 0
0.147803 -0.154269 1.055000 215 194 174 0
0.150384 -0.153969 1.053000 210 189 169 0
0.152953 -0.153668 1.051000 219 198 178 0
-0.093224 -0.156518 1.050000 212 188 160 0
-0.090107 -0.156077 1.047000 216 192 164 0
-0.087255 -0.156082 1.047000 215 191 163 0
-0.084484 -0.156236 1.048000 211 187 161 0
-0.081785 -0.156539 1.050000 213 189 163 0
-0.079000 -0.156693 1.051000 215 190 167 0
-0.076209 -0.156847 1.052000 215 192 169 0
-0.073204 -0.156553 1.050000 213 190 167 0
-0.070276 -0.156408 1.049000 213 189 163 0
-0.067031 -0.155518 1.043000 210 186 158 0
-0.064004 -0.155075 1.040000 210 186 158 0
-0.060758 -0.154035 1.033000 212 188 162 0
-0.037790 -0.132728 0.890000 204 194 185 0
-0.035165 -0.131985 0.885000 189 194 200 0
-0.032529 -0.131092 0.879000 189 196 207 0
-0.030030 -0.130646 0.876000 185 199 216 0
-0.027388 -0.129455 0.868000 68 84 127 0
-0.024819 -0.128413 0.861000 140 159 209 0
-0.022184 -0.126774 0.850000 173 193 227 0
-0.019702 -0.125731 0.843000 46 82 159 0
-0.017259 -0.124688 0.836000 84 116 179 0
-0.014925 -0.124242 0.833000 184 208 244 0
-0.012592 -0.123646 0.829000 196 215 235 0
-0.010268 -0.122901 0.824000 228 244 255 0
-0.007992 -0.122454 0.821000 241 253 255 0
-0.005773 -0.122902 0.824000 241 254 255 0
-0.003564 -0.124245 0.833000 238 253 255 0
-0.001305 -0.125438 0.841000 230 247 252 0
0.000998 -0.126482 0.848000 226 247 251 0
0.003319 -0.126780 0.850000 223 248 253 0
0.005644 -0.126929 0.851000 221 248 253 0
0.007993 -0.127376 0.854000 222 248 255 0
0.013022 -0.131104 0.879000 222 247 255 0
0.015665 -0.133191 0.893000 160 181 193 0
0.018162 -0.133637 0.896000 106 112 104 0
0.020513 -0.133039 0.892000 170 163 90 0
0.022843 -0.132441 0.888000 184 176 87 0
0.025151 -0.131843 0.884000 180 179 88 0
0.027531 -0.131692 0.883000 133 131 69 0
0.030007 -0.131989 0.885000 18 30 61 0
0.032603 -0.132733 0.890000 3 11 55 0
0.035345 -0.133924 0.898000 49 58 99 0
0.040197 -0.133770 0.897000 17 22 28 0
0.041644 -0.130636 0.876000 16 19 25 0
0.043982 -0.130484 0.875000 7 24 80 0
0.046314 -0.130332 0.874000 22 61 143 0
0.048808 -0.130627 0.876000 91 130 186 0
0.051254 -0.130773 0.877000 163 189 217 0
0.053706 -0.130919 0.878000 186 201 220 0
0.056226 -0.131214 0.880000 187 202 217 0
0.059024 -0.132105 0.886000 191 200 213 0
0.083049 -0.154299 1.035000 195 196 202 0
0.086531 -0.155486 1.043000 193 189 189 0
0.089543 -0.155779 1.045000 186 180 174 0
0.092654 -0.156221 1.048000 202 186 176 0
0.095508 -0.156215 1.048000 207 191 176 0
0.098643 -0.156657 1.051000 210 192 176 0
0.101697 -0.156949 1.053000 209 189 171 0
0.104861 -0.157390 1.056000 212 192 174 0
0.107939 -0.157682 1.058000 211 192 172 0
0.110609 -0.157377 1.056000 213 194 174 0
0.113052 -0.156775 1.052000 211 192 170 0
0.115804 -0.156619 1.051000 215 196 174 0
0.118663 -0.156613 1.051000 213 194 172 0
0.121638 -0.156755 1.052000 212 193 171 0
0.124618 -0.156897 1.053000 208 189 169 0
0.127239 -0.156592 1.051000 208 189 167 0
0.130097 -0.156585 1.051000 210 191 169 0
0.132701 -0.156279 1.049000 209 190 168 0
0.135811 -0.156570 1.051000 208 189 167 0
0.138536 -0.156413 1.050000 216 195 173 0
0.141254 -0.156256 1.049000 214 193 171 0
0.144380 -0.156547 1.051000 211 190 168 0
0.147375 -0.156688 1.052000 214 193 171 0
0.150090 -0.156531 1.051000 215 194 174 0
0.152799 -0.156374 1.050000 210 189 167 0
-0.092952 -0.158916 1.047000 208 184 156 0
-0.090273 -0.159225 1.049000 213 189 161 0
-0.087167 -0.158775 1.046000 214 190 164 0
-0.084398 -0.158932 1.047000 212 188 162 0
-0.081547 -0.158937 1.047000 210 185 162 0
-0.078920 -0.159397 1.050000 209 184 161 0
-0.076060 -0.159402 1.050000 209 186 163 0
-0.073199 -0.159406 1.050000 212 189 166 0
-0.070137 -0.158955 1.047000 214 189 166 0
-0.066963 -0.158201 1.042000 209 185 159 0
-0.063939 -0.157749 1.039000 211 187 161 0
-0.060872 -0.157146 1.035000 207 182 159 0
-0.057602 -0.155935 1.027000 205 180 157 0
-0.035361 -0.135149 0.890000 198 193 197 0
-0.032712 -0.134240 0.884000 189 193 203 0
-0.030165 -0.133635 0.880000 182 195 210 0
-0.027513 -0.132422 0.872000 187 201 218 0
-0.024904 -0.131208 0.864000 43 61 115 0
-0.022313 -0.129843 0.855000 40 69 134 0
-0.019771 -0.128478 0.846000 16 55 137 0
-0.017320 -0.127416 0.839000 9 52 124 0
-0.014978 -0.126961 0.836000 119 152 199 0
-0.012606 -0.126051 0.830000 190 209 231 0
-0.010280 -0.125292 0.825000 204 220 236 0
-0.007982 -0.124534 0.820000 239 253 255 0
-0.005780 -0.125293 0.825000 241 253 255 0
-0.003556 -0.126205 0.831000 237 254 255 0
-0.001303 -0.127572 0.840000 235 252 255 0
0.000995 -0.128483 0.846000 229 247 252 0
0.003318 -0.129091 0.850000 224 247 251 0
0.005650 -0.129394 0.852000 221 248 253 0
0.007992 -0.129697 0.854000 220 248 255 0
0.010406 -0.130760 0.861000 222 248 255 0
0.012947 -0.132733 0.874000 224 251 255 0
0.015629 -0.135314 0.891000 199 225 244 0
0.022996 -0.135766 0.894000 171 163 86 0
0.025206 -0.134550 0.886000 187 182 101 0
0.027498 -0.133941 0.882000 173 172 105 0
0.029869 -0.133787 0.881000 58 76 110 0
0.032454 -0.134544 0.886000 2 20 74 0
0.035067 -0.135301 0.891000 9 28 86 0
0.042259 -0.134990 0.889000 22 24 26 0
0.044281 -0.133773 0.881000 12 16 26 0
0.046629 -0.133618 0.880000 17 48 121 0
0.049139 -0.133919 0.882000 27 66 150 0
0.051602 -0.134068 0.883000 140 165 198 0
0.054130 -0.134368 0.885000 183 197 214 0
0.083525 -0.158022 1.041000 191 190 196 0
0.086609 -0.158472 1.044000 189 183 177 0
0.089367 -0.158315 1.043000 192 180 173 0
0.092295 -0.158461 1.044000 196 180 164 0
0.095229 -0.158607 1.045000 202 184 168 0
0.098355 -0.159057 1.048000 206 189 170 0
0.101305 -0.159203 1.049000 207 190 171 0
0.104259 -0.159348 1.050000 212 192 174 0
0.107219 -0.159494 1.051000 211 192 172 0
0.110183 -0.159639 1.052000 210 191 171 0
0.112938 -0.159481 1.051000 211 192 172 0
0.115467 -0.159019 1.048000 208 189 169 0
0.118092 -0.158709 1.046000 211 192 170 0
0.120937 -0.158702 1.046000 210 191 169 0
0.123900 -0.158847 1.047000 212 193 171 0
0.126626 -0.158688 1.046000 211 192 170 0
0.129842 -0.159136 1.049000 207 188 166 0
0.132693 -0.159128 1.049000 211 192 170 0
0.135803 -0.159424 1.051000 211 192 170 0
0.138396 -0.159113 1.049000 205 186 164 0
0.141112 -0.158954 1.048000 210 191 169 0
0.143960 -0.158946 1.048000 215 194 172 0
0.146947 -0.159089 1.049000 212 191 169 0
0.149939 -0.159233 1.050000 211 190 168 0
0.152500 -0.158921 1.048000 215 194 172 0
-0.092591 -0.161142 1.043000 207 183 155 0
-0.089924 -0.161457 1.045000 213 189 163 0
-0.086911 -0.161153 1.043000 209 185 157 0
-0.084232 -0.161467 1.045000 210 186 160 0
-0.081542 -0.161781 1.047000 214 190 164 0
-0.078915 -0.162250 1.050000 214 189 166 0
-0.075983 -0.162100 1.049000 211 186 163 0
-0.072985 -0.161796 1.047000 213 188 165 0
-0.069932 -0.161336 1.044000 211 186 163 0
-0.067087 -0.161341 1.044000 207 182 159 0
-0.064119 -0.161036 1.042000 205 180 157 0
-0.061162 -0.160731 1.040000 206 181 158 0
-0.057767 -0.159189 1.030000 201 176 153 0
-0.054853 -0.158883 1.028000 197 172 150 0
-0.051747 -0.157959 1.022000 204 179 157 0
-0.035399 -0.137722 0.891000 195 174 160 0
-0.032784 -0.136952 0.886000 192 192 200 0
-0.030197 -0.136181 0.881000 188 195 208 0
-0.027511 -0.134791 0.872000 176 186 203 0
-0.024845 -0.133247 0.862000 70 91 145 0
-0.022286 -0.132012 0.854000 29 55 133 0
-0.019840 -0.131241 0.849000 17 56 132 0
-0.017463 -0.130778 0.846000 80 113 172 0
-0.015084 -0.130161 0.842000 164 188 216 0
-0.012682 -0.129080 0.835000 192 212 230 0
-0.010330 -0.128153 0.829000 195 215 231 0
-0.008020 -0.127380 0.824000 214 229 242 0
-0.005773 -0.127381 0.824000 239 253 255 0
-0.003538 -0.127845 0.827000 239 254 255 0
-0.001297 -0.129236 0.836000 239 254 255 0
0.000993 -0.130473 0.844000 235 252 255 0
0.003314 -0.131246 0.849000 228 245 250 0
0.005636 -0.131400 0.850000 222 247 252 0
0.007973 -0.131709 0.852000 220 248 255 0
0.010357 -0.132481 0.857000 219 247 255 0
0.015540 -0.136963 0.886000 215 243 255 0
0.018240 -0.139126 0.900000 156 184 207 0
0.020718 -0.139279 0.901000 41 53 70 0
0.023020 -0.138350 0.895000 150 144 99 0
0.025233 -0.137112 0.887000 96 91 94 0
0.027496 -0.136337 0.882000 173 175 139 0
0.029799 -0.135872 0.879000 174 179 130 0
0.032233 -0.136024 0.880000 107 117 106 0
0.034829 -0.136795 0.885000 32 60 113 0
0.076728 -0.158542 1.026000 198 195 198 0
0.080452 -0.160391 1.038000 193 187 185 0
0.083520 -0.160850 1.041000 188 177 172 0
0.086355 -0.160845 1.041000 193 176 164 0
0.089276 -0.160994 1.042000 196 178 162 0
0.092201 -0.161143 1.043000 203 183 165 0
0.095041 -0.161137 1.043000 200 183 164 0
0.098162 -0.161595 1.046000 202 185 166 0
0.101009 -0.161589 1.046000 208 191 172 0
0.103955 -0.161737 1.047000 206 189 170 0
0.106702 -0.161576 1.046000 212 192 174 0
0.109653 -0.161724 1.047000 210 191 171 0
0.112394 -0.161563 1.046000 210 191 171 0
0.115130 -0.161402 1.045000 210 191 171 0
0.117860 -0.161241 1.044000 208 189 169 0
0.120583 -0.161080 1.043000 211 192 170 0
0.123538 -0.161227 1.044000 212 193 171 0
0.126498 -0.161374 1.045000 212 191 169 0
0.129711 -0.161830 1.048000 216 195 173 0
0.132433 -0.161668 1.047000 206 187 167 0
0.135408 -0.161815 1.048000 210 191 171 0
0.138124 -0.161653 1.047000 211 192 172 0
0.140835 -0.161490 1.046000 209 190 168 0
0.143814 -0.161637 1.047000 208 189 167 0
0.146659 -0.161629 1.047000 214 193 171 0
0.149645 -0.161775 1.048000 215 194 172 0
0.152346 -0.161612 1.047000 211 190 168 0
-0.092408 -0.163661 1.041000 213 189 161 0
-0.089746 -0.163981 1.043000 205 181 153 0
-0.086823 -0.163829 1.042000 209 185 159 0
-0.084066 -0.163991 1.043000 210 186 160 0
-0.081225 -0.163997 1.043000 212 187 164 0
-0.078460 -0.164159 1.044000 211 186 163 0
-0.075543 -0.164006 1.043000 212 187 164 0
-0.072493 -0.163539 1.040000 206 181 158 0
-0.069526 -0.163229 1.038000 201 176 153 0
-0.066698 -0.163233 1.038000 197 172 149 0
-0.063931 -0.163395 1.039000 198 173 150 0
-0.061041 -0.163242 1.038000 202 177 154 0
-0.057763 -0.161987 1.030000 200 175 152 0
-0.054956 -0.161991 1.030000 198 173 151 0
-0.051946 -0.161365 1.026000 196 171 148 0
-0.049246 -0.161683 1.028000 194 169 146 0
-0.035515 -0.140615 0.894000 191 174 164 0
-0.032856 -0.139673 0.888000 180 184 201 0
-0.030298 -0.139046 0.884000 175 185 202 0
-0.027636 -0.137790 0.876000 102 114 141 0
-0.024930 -0.136061 0.865000 37 54 120 0
-0.022415 -0.135119 0.859000 27 52 127 0
-0.020026 -0.134806 0.857000 70 95 169 0
-0.017627 -0.134335 0.854000 148 170 204 0
-0.015208 -0.133550 0.849000 187 206 226 0
-0.012726 -0.131820 0.838000 188 208 226 0
-0.010354 -0.130720 0.831000 193 213 229 0
-0.008039 -0.129934 0.826000 204 219 234 0
-0.005793 -0.130092 0.827000 230 246 255 0
-0.003534 -0.129935 0.826000 239 254 255 0
-0.001287 -0.130564 0.830000 239 254 255 0
0.000985 -0.131665 0.837000 236 253 255 0
0.003294 -0.132766 0.844000 232 249 254 0
0.005623 -0.133395 0.848000 224 246 252 0
0.007973 -0.134024 0.852000 221 247 255 0
0.010345 -0.134653 0.856000 220 248 255 0
0.015434 -0.138426 0.880000 210 239 254 0
0.018118 -0.140627 0.894000 145 172 194 0
0.020578 -0.140783 0.895000 127 127 109 0
0.022942 -0.140310 0.892000 120 118 98 0
0.025260 -0.139679 0.888000 9 27 63 0
0.027619 -0.139363 0.886000 6 9 25 0
0.029899 -0.138732 0.882000 151 155 110 0
0.032341 -0.138887 0.883000 166 173 142 0
0.034945 -0.139672 0.888000 111 122 117 0
0.073784 -0.161019 1.024000 191 194 198 0
0.077246 -0.162430 1.033000 196 191 185 0
0.080292 -0.162896 1.036000 188 176 169 0
0.083354 -0.163363 1.039000 189 168 158 0
0.086184 -0.163358 1.039000 193 171 155 0
0.089184 -0.163667 1.041000 194 172 154 0
0.092019 -0.163661 1.041000 197 176 156 0
0.094853 -0.163656 1.041000 199 180 160 0
0.097780 -0.163807 1.042000 207 187 169 0
0.100713 -0.163958 1.043000 207 190 171 0
0.103452 -0.163795 1.042000 207 190 171 0
0.106390 -0.163946 1.043000 207 187 169 0
0.109228 -0.163939 1.043000 207 187 169 0
0.112173 -0.164090 1.044000 207 188 168 0
0.114903 -0.163926 1.043000 206 187 167 0
0.117627 -0.163762 1.042000 211 190 170 0
0.120230 -0.163440 1.040000 214 193 171 0
0.123176 -0.163590 1.041000 211 190 168 0
0.126007 -0.163583 1.041000 210 189 167 0
0.129084 -0.163890 1.043000 212 191 169 0
0.132046 -0.164039 1.044000 209 190 168 0
0.135013 -0.164189 1.045000 212 193 173 0
0.137589 -0.163867 1.043000 210 191 171 0
0.140288 -0.163702 1.042000 211 192 172 0
0.143119 -0.163694 1.042000 212 193 173 0
0.146090 -0.163843 1.043000 207 188 166 0
0.149066 -0.163992 1.044000 210 189 167 0
0.151756 -0.163826 1.043000 217 196 174 0
-0.091959 -0.165688 1.036000 219 195 169 0
-0.089310 -0.166013 1.038000 214 190 164 0
-0.086651 -0.166339 1.040000 206 182 156 0
-0.083899 -0.166504 1.041000 210 186 160 0
-0.080987 -0.166349 1.040000 207 182 159 0
-0.078079 -0.166194 1.039000 208 183 160 0
-0.075176 -0.166039 1.038000 212 187 164 0
-0.072140 -0.165564 1.035000 207 182 159 0
-0.069253 -0.165409 1.034000 201 176 153 0
-0.066501 -0.165573 1.035000 197 172 149 0
-0.063681 -0.165577 1.035000 199 174 151 0
-0.060743 -0.165261 1.033000 197 172 149 0
-0.057704 -0.164625 1.029000 198 173 150 0
-0.054899 -0.164629 1.029000 195 170 147 0
-0.051943 -0.164152 1.026000 195 170 147 0
-0.049195 -0.164315 1.027000 191 166 144 0
-0.046034 -0.163038 1.019000 186 160 141 0
-0.030570 -0.142728 0.892000 135 166 223 0
-0.027823 -0.141130 0.882000 119 136 165 0
-0.025072 -0.139211 0.870000 39 55 116 0
-0.022465 -0.137773 0.861000 90 110 154 0
-0.020118 -0.137774 0.861000 159 183 211 0
-0.017708 -0.137295 0.858000 186 206 222 0
-0.015279 -0.136496 0.853000 189 207 223 0
-0.012817 -0.135057 0.844000 192 208 224 0
-0.010440 -0.134098 0.838000 193 211 227 0
-0.008087 -0.132978 0.831000 196 214 230 0
-0.005786 -0.132178 0.826000 204 220 235 0
-0.003521 -0.131699 0.823000 235 249 255 0
-0.001276 -0.131699 0.823000 239 254 255 0
0.000976 -0.132819 0.830000 239 254 255 0
0.003271 -0.134099 0.838000 235 252 255 0
0.005609 -0.135379 0.846000 231 248 253 0
0.007972 -0.136339 0.852000 225 245 253 0
0.010344 -0.136978 0.856000 222 245 255 0
0.015381 -0.140337 0.877000 225 250 255 0
0.018035 -0.142416 0.890000 197 223 241 0
0.020416 -0.142095 0.888000 58 73 110 0
0.022786 -0.141773 0.886000 47 61 113 0
0.025202 -0.141772 0.886000 23 50 115 0
0.027711 -0.142250 0.889000 8 39 104 0
0.029965 -0.141448 0.884000 80 92 93 0
0.032412 -0.141606 0.885000 112 120 113 0
0.035100 -0.142724 0.892000 63 76 99 0
0.071059 -0.163965 1.025000 172 169 173 0
0.074284 -0.164920 1.031000 173 164 161 0
0.077241 -0.165235 1.033000 179 160 150 0
0.080210 -0.165550 1.035000 186 161 147 0
0.083109 -0.165705 1.036000 190 166 148 0
0.086013 -0.165860 1.037000 190 167 147 0
0.088922 -0.166014 1.038000 190 167 147 0
0.091748 -0.166009 1.038000 190 169 149 0
0.094574 -0.166003 1.038000 195 174 154 0
0.097493 -0.166157 1.039000 198 179 159 0
0.100417 -0.166311 1.040000 202 182 164 0
0.103148 -0.166145 1.039000 205 185 167 0
0.105976 -0.166138 1.039000 209 189 171 0
0.108698 -0.165972 1.038000 208 188 170 0
0.111629 -0.166125 1.039000 203 183 165 0
0.114455 -0.166118 1.039000 209 188 168 0
0.117394 -0.166271 1.040000 205 184 164 0
0.120107 -0.166104 1.039000 209 188 166 0
0.123287 -0.166577 1.042000 212 191 169 0
0.125999 -0.166409 1.041000 209 188 166 0
0.128829 -0.166402 1.041000 207 187 163 0
0.131406 -0.166075 1.039000 211 192 170 0
0.134359 -0.166227 1.040000 209 190 170 0
0.136921 -0.165899 1.038000 213 196 176 0
0.139742 -0.165891 1.038000 212 193 173 0
0.142562 -0.165883 1.038000 207 188 168 0
0.145662 -0.166195 1.040000 212 193 173 0
0.148486 -0.166186 1.040000 211 190 170 0
0.151165 -0.166018 1.039000 207 186 164 0
-0.091775 -0.168176 1.034000 213 191 165 0
-0.089219 -0.168669 1.037000 219 195 169 0
-0.086478 -0.168838 1.038000 216 192 166 0
-0.083652 -0.168843 1.038000 204 180 154 0
-0.080592 -0.168360 1.035000 205 180 157 0
-0.077698 -0.168203 1.034000 209 184 161 0
-0.074882 -0.168207 1.034000 206 181 158 0
-0.071926 -0.167887 1.032000 205 180 157 0
-0.069115 -0.167891 1.032000 198 174 148 0
-0.066111 -0.167407 1.029000 193 169 143 0
-0.063369 -0.167574 1.030000 192 168 142 0
-0.060445 -0.167253 1.028000 192 167 144 0
-0.057644 -0.167257 1.028000 193 168 145 0
-0.054736 -0.166935 1.026000 192 167 145 0
-0.051839 -0.166613 1.024000 192 167 145 0
-0.048856 -0.165966 1.020000 188 163 141 0
-0.045895 -0.165318 1.016000 185 162 140 0
-0.028074 -0.144827 0.890000 173 190 219 0
-0.025272 -0.142713 0.877000 83 106 146 0
-0.022621 -0.141088 0.867000 158 176 200 0
-0.020187 -0.140601 0.864000 180 198 214 0
-0.017748 -0.139951 0.860000 187 203 218 0
-0.015332 -0.139301 0.856000 190 204 221 0
-0.012877 -0.138000 0.848000 192 206 223 0
-0.010502 -0.137187 0.843000 194 210 226 0
-0.008116 -0.135723 0.834000 194 212 228 0
-0.005807 -0.134910 0.829000 202 218 234 0
-0.003520 -0.133934 0.823000 222 238 248 0
-0.001275 -0.133771 0.822000 237 253 255 0
0.000970 -0.134260 0.825000 237 254 255 0
0.003255 -0.135724 0.834000 237 254 255 0
0.005615 -0.137839 0.847000 234 250 255 0
0.008037 -0.139792 0.859000 228 245 255 0
0.015537 -0.144184 0.886000 236 252 255 0
0.018115 -0.145484 0.894000 227 241 255 0
0.020415 -0.144507 0.888000 16 29 67 0
0.022784 -0.144180 0.886000 29 47 101 0
0.025171 -0.144015 0.885000 17 53 131 0
0.027740 -0.144827 0.890000 15 53 140 0
0.030166 -0.144825 0.890000 14 53 135 0
0.062127 -0.165297 1.016000 177 154 134 0
0.065342 -0.166432 1.023000 176 155 133 0
0.068462 -0.167241 1.028000 177 156 136 0
0.071401 -0.167562 1.030000 178 156 140 0
0.074279 -0.167720 1.031000 182 156 138 0
0.077162 -0.167878 1.032000 175 149 130 0
0.079972 -0.167873 1.032000 179 153 134 0
0.082863 -0.168030 1.033000 183 158 136 0
0.085759 -0.168188 1.034000 188 163 141 0
0.088659 -0.168345 1.035000 189 164 142 0
0.091477 -0.168339 1.035000 190 167 145 0
0.094568 -0.168821 1.038000 193 170 150 0
0.097393 -0.168815 1.038000 193 170 150 0
0.100314 -0.168972 1.039000 194 173 153 0
0.102844 -0.168478 1.036000 200 178 160 0
0.105561 -0.168309 1.035000 205 183 165 0
0.108167 -0.167977 1.033000 209 187 169 0
0.111193 -0.168295 1.035000 207 185 167 0
0.114118 -0.168451 1.036000 209 188 168 0
0.117049 -0.168607 1.037000 205 186 166 0
0.119869 -0.168600 1.037000 206 187 167 0
0.122688 -0.168592 1.037000 202 183 161 0
0.125508 -0.168585 1.037000 206 187 165 0
0.128203 -0.168415 1.036000 208 189 167 0
0.131019 -0.168407 1.036000 211 192 170 0
0.133834 -0.168399 1.036000 211 192 170 0
0.136386 -0.168066 1.034000 213 194 174 0
0.139195 -0.168058 1.034000 211 192 172 0
0.142005 -0.168050 1.034000 214 195 175 0
0.145093 -0.168367 1.036000 206 187 167 0
0.147907 -0.168359 1.036000 210 189 169 0
0.150575 -0.168188 1.035000 213 192 172 0
-0.091681 -0.170817 1.033000 208 185 162 0
-0.088783 -0.170658 1.032000 213 190 167 0
-0.086140 -0.170994 1.034000 216 191 168 0
-0.083325 -0.170999 1.034000 210 185 162 0
-0.080431 -0.170839 1.033000 203 178 155 0
-0.077543 -0.170679 1.032000 204 179 156 0
-0.074732 -0.170684 1.032000 203 178 155 0
-0.071922 -0.170689 1.032000 199 174 151 0
-0.068977 -0.170363 1.030000 197 172 149 0
-0.066107 -0.170201 1.029000 192 168 142 0
-0.063303 -0.170206 1.029000 193 169 143 0
-0.060382 -0.169879 1.027000 191 166 143 0
-0.057528 -0.169717 1.026000 194 169 147 0
-0.054626 -0.169390 1.024000 192 167 145 0
-0.051784 -0.169228 1.023000 191 166 144 0
-0.048805 -0.168570 1.019000 187 162 140 0
-0.046028 -0.168573 1.019000 182 159 137 0
-0.043293 -0.168741 1.020000 185 159 140 0
-0.028103 -0.147409 0.891000 137 158 200 0
-0.025300 -0.145260 0.878000 179 193 212 0
-0.022723 -0.144104 0.871000 172 188 204 0
-0.020279 -0.143609 0.868000 183 198 211 0
-0.017809 -0.142783 0.863000 187 202 217 0
-0.015349 -0.141791 0.857000 190 205 220 0
-0.012936 -0.140965 0.852000 191 206 221 0
-0.010563 -0.140304 0.848000 192 208 224 0
-0.008183 -0.139147 0.841000 193 209 225 0
-0.005813 -0.137327 0.830000 194 212 228 0
-0.003524 -0.136335 0.824000 200 215 228 0
-0.001275 -0.136004 0.822000 234 250 255 0
0.000976 -0.137328 0.830000 237 254 255 0
0.003286 -0.139313 0.842000 237 255 255 0
0.023092 -0.148571 0.898000 11 16 36 0
0.025426 -0.147908 0.894000 4 14 49 0
0.027988 -0.148568 0.898000 0 16 70 0
0.054348 -0.169721 1.026000 25 20 14 0
0.057200 -0.169883 1.027000 152 138 128 0
0.059998 -0.169879 1.027000 169 153 138 0
0.062796 -0.169876 1.027000 171 149 131 0
0.065658 -0.170037 1.028000 174 151 131 0
0.068391 -0.169867 1.027000 176 153 133 0
0.071327 -0.170193 1.029000 176 153 133 0
0.074418 -0.170850 1.033000 178 152 133 0
0.077306 -0.171010 1.034000 182 157 135 0
0.080122 -0.171006 1.034000 185 160 138 0
0.082777 -0.170669 1.032000 182 156 137 0
0.085670 -0.170830 1.033000 179 153 134 0
0.088654 -0.171155 1.035000 182 157 135 0
0.091471 -0.171149 1.035000 180 154 135 0
0.094380 -0.171309 1.036000 184 161 141 0
0.097105 -0.171137 1.035000 186 163 141 0
0.100019 -0.171296 1.036000 193 170 148 0
0.102639 -0.170959 1.034000 192 169 149 0
0.105453 -0.170953 1.034000 193 170 150 0
0.107951 -0.170450 1.031000 194 173 153 0
0.110863 -0.170609 1.032000 206 184 166 0
0.113781 -0.170767 1.033000 204 183 163 0
0.116703 -0.170925 1.034000 205 186 166 0
0.119746 -0.171249 1.036000 206 187 167 0
0.122326 -0.170911 1.034000 204 185 163 0
0.125258 -0.171069 1.035000 207 188 166 0
0.127700 -0.170565 1.032000 202 183 161 0
0.130505 -0.170558 1.032000 210 191 171 0
0.133310 -0.170550 1.032000 208 189 169 0
0.136114 -0.170542 1.032000 208 189 169 0
0.139187 -0.170864 1.034000 211 192 172 0
0.141996 -0.170856 1.034000 210 191 171 0
0.144665 -0.170683 1.033000 208 189 169 0
0.147042 -0.170179 1.030000 213 192 172 0
0.149839 -0.170170 1.030000 210 189 167 0
-0.091409 -0.173117 1.030000 214 190 164 0
-0.088433 -0.172787 1.028000 211 186 163 0
-0.085718 -0.172961 1.029000 210 187 164 0
-0.082755 -0.172630 1.027000 211 188 165 0
-0.079881 -0.172467 1.026000 201 176 153 0
-0.077162 -0.172640 1.027000 200 175 152 0
-0.074583 -0.173149 1.030000 202 177 154 0
-0.071847 -0.173322 1.031000 197 172 149 0
-0.068905 -0.172991 1.029000 199 175 149 0
-0.066038 -0.172827 1.028000 191 167 141 0
-0.063238 -0.172831 1.028000 191 167 141 0
-0.060378 -0.172667 1.027000 192 167 144 0
-0.057468 -0.172335 1.025000 193 168 146 0
-0.054462 -0.171666 1.021000 193 168 146 0
-0.051579 -0.171333 1.019000 186 163 143 0
-0.048610 -0.170664 1.015000 186 161 139 0
-0.045844 -0.170667 1.015000 179 158 138 0
-0.042993 -0.170334 1.013000 182 156 137 0
-0.040073 -0.169664 1.009000 168 154 162 0
-0.025384 -0.148149 0.881000 183 192 213 0
-0.022826 -0.147142 0.875000 185 193 209 0
-0.020371 -0.146638 0.872000 186 195 208 0
-0.017911 -0.145967 0.868000 191 200 213 0
-0.015384 -0.144455 0.859000 193 204 219 0
-0.012951 -0.143447 0.853000 193 206 221 0
-0.010563 -0.142607 0.848000 193 207 224 0
-0.008202 -0.141766 0.843000 195 209 226 0
-0.005834 -0.140085 0.833000 195 211 227 0
-0.003546 -0.139413 0.829000 199 215 231 0
-0.001288 -0.139749 0.831000 203 219 235 0
0.000990 -0.141599 0.842000 216 234 250 0
0.013964 -0.158582 0.943000 119 134 182 0
0.016675 -0.159926 0.951000 28 44 98 0
0.019247 -0.159757 0.950000 7 20 76 0
0.021676 -0.158578 0.943000 21 30 85 0
0.024196 -0.158240 0.941000 22 33 66 0
0.026675 -0.157734 0.938000 32 32 42 0
0.029357 -0.158405 0.942000 28 29 35 0
0.035115 -0.161259 0.959000 28 27 31 0
0.038161 -0.163106 0.970000 28 28 30 0
0.051247 -0.171502 1.020000 37 35 45 0
0.054292 -0.172339 1.025000 123 116 117 0
0.057140 -0.172503 1.026000 161 145 130 0
0.059877 -0.172331 1.025000 167 145 129 0
0.062670 -0.172327 1.025000 176 153 133 0
0.065462 -0.172323 1.025000 177 154 132 0
0.068254 -0.172319 1.025000 174 149 127 0
0.071115 -0.172482 1.026000 175 150 128 0
0.074125 -0.172982 1.029000 179 154 132 0
0.077002 -0.173145 1.030000 181 156 134 0
0.079962 -0.173476 1.032000 182 157 135 0
0.082692 -0.173303 1.031000 185 159 140 0
0.085499 -0.173297 1.031000 184 158 139 0
0.088305 -0.173292 1.031000 183 157 138 0
0.091289 -0.173622 1.033000 181 155 136 0
0.094283 -0.173952 1.035000 179 153 134 0
0.096912 -0.173610 1.033000 184 159 137 0
0.099723 -0.173604 1.033000 190 165 143 0
0.102335 -0.173261 1.031000 197 172 150 0
0.105140 -0.173255 1.031000 191 166 144 0
0.107735 -0.172912 1.029000 195 169 150 0
0.110534 -0.172906 1.029000 199 173 154 0
0.113443 -0.173067 1.030000 197 174 154 0
0.116470 -0.173396 1.032000 198 177 157 0
0.119161 -0.173220 1.031000 206 185 163 0
0.121845 -0.173045 1.030000 207 186 164 0
0.124524 -0.172870 1.029000 201 182 160 0
0.127445 -0.173030 1.030000 206 187 165 0
0.130245 -0.173022 1.030000 207 188 168 0
0.133044 -0.173014 1.030000 206 187 167 0
0.135842 -0.173006 1.030000 211 192 172 0
0.138910 -0.173334 1.032000 211 192 172 0
0.141713 -0.173326 1.032000 209 190 170 0
0.144096 -0.172814 1.029000 210 191 171 0
0.146320 -0.172134 1.025000 208 189 167 0
0.148958 -0.171957 1.024000 217 198 176 0
-0.094023 -0.175565 1.028000 208 184 158 0
-0.091225 -0.175571 1.028000 211 187 161 0
-0.088255 -0.175235 1.026000 214 190 164 0
-0.085379 -0.175070 1.025000 204 180 154 0
-0.082266 -0.174392 1.021000 205 182 159 0
-0.079564 -0.174568 1.022000 205 182 159 0
-0.076932 -0.174915 1.024000 195 170 147 0
-0.074288 -0.175262 1.026000 197 172 149 0
-0.071634 -0.175608 1.028000 197 172 149 0
-0.068700 -0.175271 1.026000 196 172 146 0
-0.065969 -0.175446 1.027000 189 165 139 0
-0.063233 -0.175621 1.028000 186 162 136 0
-0.060374 -0.175455 1.027000 189 165 139 0
-0.057408 -0.174946 1.024000 190 165 142 0
-0.054352 -0.174096 1.019000 186 161 139 0
-0.051474 -0.173758 1.017000 180 155 133 0
-0.048511 -0.173077 1.013000 186 161 139 0
-0.045706 -0.172910 1.012000 179 156 136 0
-0.042778 -0.172229 1.008000 180 157 135 0
-0.040031 -0.172232 1.008000 167 155 156 0
-0.025498 -0.151224 0.885000 73 78 109 0
-0.022955 -0.150371 0.880000 190 197 210 0
-0.020533 -0.150202 0.879000 188 195 206 0
-0.018075 -0.149690 0.876000 186 195 208 0
-0.015544 -0.148325 0.868000 192 203 216 0
-0.013056 -0.146959 0.860000 193 204 219 0
-0.010649 -0.146105 0.855000 192 204 221 0
-0.008270 -0.145251 0.850000 192 206 223 0
-0.005889 -0.143714 0.841000 193 207 224 0
-0.003584 -0.143201 0.838000 194 208 225 0
-0.001305 -0.143885 0.842000 193 207 224 0
0.008765 -0.160118 0.937000 123 136 163 0
0.011392 -0.161143 0.943000 18 33 80 0
0.014007 -0.161655 0.946000 11 24 99 0
0.016569 -0.161483 0.945000 13 29 101 0
0.019124 -0.161310 0.944000 9 27 95 0
0.021652 -0.160967 0.942000 10 25 90 0
0.024323 -0.161649 0.946000 11 23 84 0
0.027043 -0.162502 0.951000 24 31 86 0
0.029885 -0.163867 0.959000 35 38 76 0
0.032566 -0.164207 0.961000 39 40 62 0
0.035405 -0.165229 0.967000 36 35 47 0
0.038277 -0.166252 0.973000 35 38 45 0
0.041139 -0.167104 0.978000 33 37 48 0
0.050993 -0.173416 1.015000 62 72 121 0
0.054023 -0.174267 1.020000 143 131 130 0
0.056969 -0.174776 1.023000 158 142 127 0
0.059873 -0.175114 1.025000 164 144 128 0
0.062543 -0.174768 1.023000 164 143 123 0
0.065457 -0.175105 1.025000 167 144 124 0
0.068116 -0.174759 1.023000 177 154 132 0
0.070972 -0.174926 1.024000 172 149 127 0
0.073976 -0.175433 1.027000 172 147 125 0
0.076773 -0.175428 1.027000 173 148 126 0
0.079802 -0.175936 1.030000 179 154 132 0
0.082446 -0.175589 1.028000 182 156 137 0
0.085245 -0.175583 1.028000 178 152 133 0
0.087957 -0.175407 1.027000 182 156 138 0
0.090841 -0.175572 1.028000 184 158 140 0
0.093639 -0.175566 1.028000 182 156 137 0
0.096343 -0.175389 1.027000 179 153 134 0
0.099137 -0.175383 1.027000 178 153 131 0
0.102031 -0.175547 1.028000 186 161 139 0
0.104929 -0.175711 1.029000 190 165 143 0
0.107729 -0.175705 1.029000 192 167 145 0
0.110420 -0.175527 1.028000 196 170 151 0
0.113106 -0.175349 1.027000 197 172 150 0
0.115898 -0.175342 1.027000 192 169 147 0
0.118575 -0.175164 1.026000 199 178 156 0
0.121483 -0.175328 1.027000 198 177 155 0
0.124154 -0.175149 1.026000 202 181 159 0
0.126943 -0.175142 1.026000 206 187 165 0
0.129857 -0.175305 1.027000 205 186 164 0
0.132777 -0.175467 1.028000 210 191 171 0
0.135570 -0.175459 1.028000 206 187 167 0
0.138363 -0.175451 1.028000 209 190 170 0
0.141156 -0.175443 1.028000 207 188 168 0
0.143528 -0.174922 1.025000 209 190 170 0
0.146026 -0.174573 1.023000 210 191 171 0
0.148804 -0.174564 1.023000 211 192 172 0
-0.093651 -0.177660 1.024000 208 184 158 0
-0.090953 -0.177840 1.025000 206 182 156 0
-0.088164 -0.177846 1.025000 208 184 158 0
-0.085207 -0.177504 1.023000 207 183 157 0
-0.082100 -0.176816 1.019000 201 178 155 0
-0.079559 -0.177342 1.022000 203 180 157 0
-0.076852 -0.177520 1.023000 205 180 157 0
-0.074066 -0.177525 1.023000 187 162 139 0
-0.071280 -0.177530 1.023000 189 165 139 0
-0.068561 -0.177708 1.024000 189 165 139 0
-0.065772 -0.177713 1.024000 188 164 138 0
-0.062983 -0.177717 1.024000 186 161 138 0
-0.060194 -0.177721 1.024000 186 161 138 0
-0.057292 -0.177378 1.022000 183 158 135 0
-0.054241 -0.176514 1.017000 171 146 123 0
-0.051319 -0.175997 1.014000 167 142 119 0
-0.048316 -0.175133 1.009000 168 143 120 0
-0.045341 -0.174268 1.004000 176 152 134 0
-0.042436 -0.173577 1.000000 171 151 135 0
-0.039790 -0.173927 1.002000 138 123 117 0
-0.020625 -0.153282 0.883000 201 204 210 0
-0.018239 -0.153457 0.884000 163 175 208 0
0.006230 -0.163183 0.940000 92 92 102 0
0.008821 -0.163703 0.943000 24 32 49 0
0.011416 -0.164050 0.945000 29 47 101 0
0.013977 -0.163875 0.944000 6 37 126 0
0.016480 -0.163180 0.940000 4 31 120 0
0.019002 -0.162831 0.938000 0 26 105 0
0.021559 -0.162830 0.938000 2 28 106 0
0.024244 -0.163696 0.943000 2 28 106 0
0.027041 -0.165083 0.951000 19 47 116 0
0.029883 -0.166470 0.959000 34 62 123 0
0.032598 -0.166989 0.962000 37 66 123 0
0.035366 -0.167681 0.966000 46 72 133 0
0.038196 -0.168546 0.971000 40 67 132 0
0.041052 -0.169411 0.976000 39 68 135 0
0.044115 -0.170970 0.985000 39 67 138 0
0.053808 -0.176341 1.016000 62 82 151 0
0.056910 -0.177379 1.022000 125 116 147 0
0.059811 -0.177722 1.024000 148 131 126 0
0.062539 -0.177544 1.023000 161 139 121 0
0.065389 -0.177713 1.024000 165 143 125 0
0.067978 -0.177188 1.021000 167 144 124 0
0.070828 -0.177357 1.022000 169 146 124 0
0.073683 -0.177526 1.023000 173 150 128 0
0.076394 -0.177348 1.022000 173 150 128 0
0.079409 -0.177863 1.025000 173 147 128 0
0.082120 -0.177684 1.024000 172 149 129 0
0.084907 -0.177679 1.024000 177 154 134 0
0.087523 -0.177326 1.022000 179 155 137 0
0.090305 -0.177320 1.022000 177 153 135 0
0.093177 -0.177488 1.023000 181 158 138 0
0.095961 -0.177482 1.023000 186 163 143 0
0.098745 -0.177475 1.023000 189 163 144 0
0.101528 -0.177469 1.023000 183 158 136 0
0.104311 -0.177462 1.023000 183 158 136 0
0.107198 -0.177629 1.024000 188 163 141 0
0.109983 -0.177622 1.024000 193 168 146 0
0.112548 -0.177268 1.022000 195 170 148 0
0.115214 -0.177088 1.021000 196 171 148 0
0.117990 -0.177080 1.021000 196 171 149 0
0.121121 -0.177593 1.024000 199 176 154 0
0.123783 -0.177412 1.023000 199 178 156 0
0.126564 -0.177405 1.023000 209 188 166 0
0.129217 -0.177224 1.022000 213 192 170 0
0.132124 -0.177389 1.023000 206 187 165 0
0.134771 -0.177207 1.022000 210 191 171 0
0.137682 -0.177373 1.023000 203 184 164 0
0.140324 -0.177191 1.022000 208 189 169 0
0.143099 -0.177183 1.022000 210 191 171 0
0.145875 -0.177174 1.022000 212 193 173 0
0.148795 -0.177339 1.023000 211 192 172 0
-0.093554 -0.180262 1.023000 209 185 159 0
-0.090770 -0.180268 1.023000 208 184 158 0
-0.087900 -0.180098 1.022000 201 177 151 0
-0.085035 -0.179927 1.021000 204 180 154 0
-0.082175 -0.179757 1.020000 202 177 154 0
-0.079554 -0.180115 1.022000 200 175 152 0
-0.076621 -0.179767 1.020000 202 177 154 0
-0.073699 -0.179420 1.018000 199 174 151 0
-0.070788 -0.179072 1.016000 184 159 136 0
-0.068155 -0.179429 1.018000 187 162 139 0
-0.065447 -0.179610 1.019000 188 163 140 0
-0.062918 -0.180320 1.023000 182 157 134 0
-0.060131 -0.180324 1.023000 183 158 135 0
-0.057176 -0.179799 1.020000 181 156 133 0
-0.054078 -0.178745 1.014000 172 147 124 0
-0.051163 -0.178220 1.011000 163 138 115 0
-0.048265 -0.177694 1.008000 162 137 114 0
-0.045293 -0.176816 1.003000 164 139 117 0
-0.042603 -0.176995 1.004000 163 141 125 0
-0.039787 -0.176646 1.002000 153 135 119 0
0.003656 -0.165205 0.937000 24 24 34 0
0.006230 -0.165734 0.940000 33 34 40 0
0.008811 -0.166086 0.942000 26 29 45 0
0.011342 -0.165556 0.939000 39 49 100 0
0.013931 -0.165908 0.941000 18 53 144 0
0.016426 -0.165202 0.937000 7 46 136 0
0.018940 -0.164848 0.935000 6 43 127 0
0.021488 -0.164846 0.935000 16 49 131 0
0.024191 -0.165903 0.941000 23 55 132 0
0.027040 -0.167664 0.951000 32 60 131 0
0.029850 -0.168896 0.958000 35 63 132 0
0.032596 -0.169599 0.962000 39 68 135 0
0.035401 -0.170478 0.967000 42 71 136 0
0.038232 -0.171357 0.972000 41 69 138 0
0.041049 -0.172060 0.976000 44 72 143 0
0.043977 -0.173114 0.982000 45 74 149 0
0.053645 -0.178569 1.013000 32 69 151 0
0.056739 -0.179623 1.019000 65 84 144 0
0.059690 -0.180148 1.022000 136 127 134 0
0.062351 -0.179791 1.020000 151 131 115 0
0.065129 -0.179787 1.020000 155 135 117 0
0.067708 -0.179254 1.017000 162 141 121 0
0.070477 -0.179249 1.017000 166 145 125 0
0.073318 -0.179421 1.018000 165 142 120 0
0.076165 -0.179592 1.019000 167 144 122 0
0.079094 -0.179939 1.021000 173 150 130 0
0.081954 -0.180110 1.022000 175 152 130 0
0.084736 -0.180104 1.022000 169 146 126 0
0.087346 -0.179746 1.020000 177 154 134 0
0.090034 -0.179564 1.019000 177 154 134 0
0.092807 -0.179558 1.019000 179 156 136 0
0.095674 -0.179728 1.020000 183 160 140 0
0.098449 -0.179722 1.020000 189 163 144 0
0.101224 -0.179716 1.020000 190 164 145 0
0.103998 -0.179709 1.020000 189 164 142 0
0.106773 -0.179702 1.020000 187 162 140 0
0.109654 -0.179872 1.021000 190 165 143 0
0.112321 -0.179688 1.020000 193 168 146 0
0.114981 -0.179505 1.019000 194 169 146 0
0.117867 -0.179674 1.020000 195 170 148 0
0.120877 -0.180019 1.022000 196 171 149 0
0.123534 -0.179835 1.021000 202 177 154 0
0.125937 -0.179299 1.018000 204 181 158 0
0.128704 -0.179291 1.018000 207 187 163 0
0.131599 -0.179459 1.019000 214 194 170 0
0.134367 -0.179451 1.019000 211 191 167 0
0.137001 -0.179267 1.018000 208 189 167 0
0.139766 -0.179258 1.018000 210 191 169 0
0.142671 -0.179426 1.019000 205 186 166 0
0.145438 -0.179418 1.019000 209 190 170 0
0.148350 -0.179585 1.020000 213 194 174 0
-0.093182 -0.182322 1.019000 201 176 153 0
-0.090143 -0.181791 1.016000 204 179 156 0
-0.087550 -0.182155 1.018000 199 174 151 0
-0.084779 -0.182160 1.018000 195 170 147 0
-0.082008 -0.182166 1.018000 194 169 146 0
-0.079159 -0.181992 1.017000 192 167 144 0
-0.076391 -0.181998 1.017000 192 167 144 0
-0.073550 -0.181824 1.016000 187 162 139 0
-0.070644 -0.181471 1.014000 187 162 140 0
-0.067749 -0.181117 1.012000 179 154 132 0
-0.065250 -0.181838 1.016000 180 155 133 0
-0.062544 -0.182021 1.017000 177 152 130 0
-0.059892 -0.182383 1.019000 177 152 130 0
-0.056836 -0.181492 1.014000 179 154 131 0
-0.053914 -0.180959 1.011000 175 150 127 0
-0.051008 -0.180426 1.008000 165 140 117 0
-0.048262 -0.180429 1.008000 158 133 110 0
-0.045561 -0.180611 1.009000 158 133 111 0
-0.042769 -0.180435 1.008000 155 132 109 0
-0.029891 -0.169705 0.948000 33 35 35 0
-0.027192 -0.168991 0.944000 50 54 56 0
-0.024437 -0.167740 0.937000 43 47 49 0
-0.021907 -0.167920 0.938000 25 29 31 0
-0.019288 -0.167385 0.935000 21 26 23 0
-0.011681 -0.167925 0.938000 25 36 67 0
-0.009212 -0.169537 0.947000 15 64 155 0
0.003640 -0.167031 0.933000 28 34 50 0
0.006243 -0.168642 0.942000 40 46 52 0
0.008810 -0.168642 0.942000 34 42 51 0
0.011329 -0.167925 0.938000 46 52 77 0
0.013886 -0.167924 0.938000 25 63 143 0
0.016390 -0.167386 0.935000 11 56 146 0
0.018918 -0.167206 0.934000 10 54 141 0
0.021486 -0.167383 0.935000 11 53 139 0
0.024189 -0.168456 0.941000 15 54 138 0
0.027066 -0.170423 0.952000 26 60 137 0
0.029847 -0.171495 0.958000 31 63 140 0
0.032594 -0.172209 0.962000 34 64 139 0
0.035398 -0.173102 0.967000 36 67 140 0
0.038151 -0.173636 0.970000 36 68 145 0
0.041004 -0.174529 0.975000 38 70 147 0
0.043840 -0.175242 0.979000 39 72 153 0
0.047077 -0.177387 0.991000 35 72 154 0
0.050380 -0.179531 1.003000 33 71 159 0
0.053588 -0.181139 1.012000 24 61 145 0
0.056624 -0.182030 1.017000 59 74 130 0
0.059452 -0.182205 1.018000 135 118 108 0
0.062164 -0.182022 1.017000 141 123 108 0
0.064806 -0.181659 1.015000 145 125 109 0
0.067570 -0.181655 1.015000 152 130 112 0
0.070403 -0.181829 1.016000 164 141 121 0
0.073313 -0.182182 1.018000 167 144 124 0
0.076010 -0.181998 1.017000 165 142 122 0
0.078779 -0.181993 1.017000 169 146 126 0
0.081708 -0.182346 1.019000 177 154 134 0
0.084482 -0.182340 1.019000 178 155 135 0
0.087169 -0.182155 1.018000 172 149 129 0
0.089763 -0.181792 1.016000 175 152 132 0
0.092528 -0.181786 1.016000 178 155 135 0
0.095480 -0.182137 1.018000 178 154 136 0
0.098249 -0.182131 1.018000 182 156 137 0
0.100820 -0.181767 1.016000 188 162 143 0
0.103278 -0.181223 1.013000 192 167 145 0
0.106138 -0.181396 1.014000 194 169 147 0
0.109218 -0.181925 1.017000 197 172 150 0
0.111983 -0.181918 1.017000 191 166 144 0
0.114861 -0.182090 1.018000 189 164 141 0
0.117744 -0.182261 1.019000 193 168 146 0
0.120514 -0.182254 1.019000 191 166 144 0
0.123163 -0.182067 1.018000 200 175 152 0
0.125558 -0.181523 1.015000 202 177 154 0
0.128317 -0.181515 1.015000 206 184 158 0
0.131204 -0.181686 1.016000 208 186 160 0
0.133832 -0.181499 1.015000 211 191 167 0
0.136724 -0.181670 1.016000 212 191 169 0
0.139346 -0.181482 1.015000 212 193 171 0
0.142242 -0.181653 1.016000 207 188 168 0
0.144858 -0.181465 1.015000 210 190 172 0
0.147759 -0.181635 1.016000 210 190 172 0
-0.092627 -0.183996 1.013000 208 183 161 0
-0.089871 -0.184002 1.013000 194 169 146 0
-0.087372 -0.184552 1.016000 197 172 149 0
-0.084690 -0.184740 1.017000 197 172 149 0
-0.081761 -0.184382 1.015000 192 167 144 0
-0.078843 -0.184024 1.013000 191 166 143 0
-0.076160 -0.184211 1.014000 191 166 143 0
-0.073400 -0.184216 1.014000 188 163 140 0
-0.070500 -0.183858 1.012000 184 159 137 0
-0.067543 -0.183317 1.009000 185 160 138 0
-0.065053 -0.184049 1.013000 178 153 131 0
-0.062355 -0.184235 1.014000 177 152 130 0
-0.059653 -0.184421 1.015000 173 148 125 0
-0.056552 -0.183334 1.009000 174 149 126 0
-0.053750 -0.183157 1.008000 172 147 124 0
-0.051005 -0.183160 1.008000 171 146 123 0
-0.048498 -0.184072 1.013000 166 141 118 0
-0.045783 -0.184257 1.014000 153 130 108 0
-0.032643 -0.173183 0.953000 37 33 33 0
-0.029920 -0.172458 0.949000 30 37 36 0
-0.027305 -0.172279 0.948000 25 32 31 0
-0.024670 -0.171917 0.946000 28 31 35 0
-0.022069 -0.171737 0.945000 29 33 35 0
-0.019473 -0.171557 0.944000 40 44 44 0
-0.016793 -0.170468 0.938000 22 26 26 0
-0.014145 -0.169378 0.932000 16 20 22 0
-0.011754 -0.171560 0.944000 12 17 23 0
-0.009279 -0.173378 0.954000 0 8 38 0
-0.004036 -0.171562 0.944000 6 62 165 0
0.003651 -0.170108 0.936000 18 30 49 0
0.006269 -0.171925 0.946000 37 45 52 0
0.008810 -0.171197 0.942000 42 48 55 0
0.011304 -0.170106 0.936000 48 52 68 0
0.013841 -0.169924 0.935000 31 59 128 0
0.016389 -0.169923 0.935000 16 60 147 0
0.018917 -0.169740 0.934000 10 56 143 0
0.021531 -0.170283 0.937000 15 59 146 0
0.024239 -0.171372 0.943000 15 57 143 0
0.027064 -0.173006 0.952000 27 65 145 0
0.029845 -0.174094 0.958000 30 64 141 0
0.032591 -0.174819 0.962000 31 65 142 0
0.035396 -0.175725 0.967000 34 66 143 0
0.038266 -0.176813 0.973000 36 68 145 0
0.041127 -0.177719 0.978000 34 68 146 0
0.043971 -0.178443 0.982000 36 71 152 0
0.050376 -0.182252 1.003000 33 69 156 0
0.053532 -0.183702 1.011000 24 59 141 0
0.056453 -0.184243 1.014000 66 77 132 0
0.059273 -0.184421 1.015000 130 113 101 0
0.062037 -0.184417 1.015000 138 118 102 0
0.064737 -0.184231 1.014000 138 118 102 0
0.067499 -0.184226 1.014000 147 125 107 0
0.070260 -0.184222 1.014000 145 123 105 0
0.073164 -0.184580 1.016000 156 133 113 0
0.075856 -0.184393 1.015000 163 142 122 0
0.078464 -0.184025 1.013000 170 149 127 0
0.081382 -0.184383 1.015000 169 148 126 0
0.084227 -0.184559 1.016000 168 147 125 0
0.087078 -0.184735 1.017000 175 154 132 0
0.089669 -0.184366 1.015000 184 161 139 0
0.092431 -0.184360 1.015000 171 148 128 0
0.095192 -0.184353 1.015000 174 148 129 0
0.098050 -0.184529 1.016000 176 150 131 0
0.100615 -0.184159 1.014000 177 151 132 0
0.103271 -0.183971 1.013000 186 161 139 0
0.105922 -0.183782 1.012000 194 169 147 0
0.108888 -0.184138 1.014000 194 169 147 0
0.111646 -0.184131 1.014000 201 176 154 0
0.114403 -0.184124 1.014000 199 174 152 0
0.117159 -0.184117 1.014000 193 168 145 0
0.120034 -0.184291 1.015000 188 163 140 0
0.122913 -0.184465 1.016000 192 167 144 0
0.125427 -0.184094 1.014000 193 169 143 0
0.128056 -0.183904 1.013000 202 180 154 0
0.131066 -0.184259 1.015000 205 183 157 0
0.133692 -0.184070 1.014000 209 187 161 0
0.136312 -0.183880 1.013000 209 189 165 0
0.138788 -0.183508 1.011000 213 192 170 0
0.141534 -0.183500 1.011000 212 193 173 0
0.144136 -0.183310 1.010000 210 191 171 0
-0.092347 -0.186189 1.010000 208 185 163 0
-0.089687 -0.186380 1.011000 203 178 156 0
-0.086936 -0.186386 1.011000 193 168 145 0
-0.084185 -0.186392 1.011000 191 166 143 0
-0.081111 -0.185660 1.007000 192 167 144 0
-0.078370 -0.185665 1.007000 190 165 142 0
-0.075855 -0.186223 1.010000 184 159 136 0
-0.073250 -0.186597 1.012000 184 159 136 0
-0.070495 -0.186602 1.012000 185 160 138 0
-0.067472 -0.185869 1.008000 180 155 133 0
-0.064984 -0.186612 1.012000 181 156 133 0
-0.062044 -0.186063 1.009000 173 148 125 0
-0.059414 -0.186436 1.011000 173 148 125 0
-0.056324 -0.185333 1.005000 170 145 122 0
-0.053693 -0.185706 1.007000 168 143 121 0
-0.051052 -0.186078 1.009000 164 141 119 0
-0.048495 -0.186819 1.013000 161 138 118 0
-0.045690 -0.186638 1.012000 151 131 113 0
-0.037993 -0.176501 0.957000 41 36 29 0
-0.035126 -0.175212 0.950000 42 53 86 0
-0.032470 -0.174846 0.948000 62 71 94 0
-0.029824 -0.174479 0.946000 121 130 119 0
-0.027217 -0.174297 0.945000 82 93 74 0
-0.024642 -0.174298 0.945000 47 47 77 0
-0.022067 -0.174300 0.945000 35 35 53 0
-0.019368 -0.173195 0.939000 40 40 42 0
-0.016648 -0.171536 0.930000 35 39 39 0
-0.011779 -0.174489 0.946000 19 22 19 0
-0.009288 -0.176150 0.955000 11 17 20 0
-0.006699 -0.176520 0.957000 0 29 104 0
-0.004023 -0.173569 0.941000 7 62 161 0
0.003639 -0.172093 0.933000 14 24 49 0
0.006268 -0.174491 0.946000 34 39 49 0
0.008809 -0.173753 0.942000 44 49 59 0
0.011316 -0.172829 0.937000 49 52 66 0
0.013840 -0.172460 0.935000 38 62 123 0
0.016370 -0.172274 0.934000 19 61 145 0
0.018936 -0.172457 0.935000 11 59 146 0
0.021598 -0.173378 0.940000 11 57 144 0
0.024340 -0.174668 0.947000 12 56 143 0
0.027091 -0.175773 0.953000 25 62 144 0
0.029874 -0.176877 0.959000 25 63 141 0
0.032555 -0.177244 0.961000 31 67 145 0
0.035356 -0.178163 0.966000 34 68 145 0
0.038224 -0.179268 0.972000 33 67 145 0
0.041125 -0.180371 0.978000 34 69 150 0
0.044013 -0.181291 0.983000 33 68 149 0
0.047023 -0.182578 0.990000 35 72 154 0
0.050121 -0.184050 0.998000 36 73 155 0
0.053263 -0.185522 1.006000 35 68 149 0
0.056170 -0.186071 1.009000 74 85 132 0
0.059152 -0.186805 1.013000 128 111 99 0
0.061911 -0.186801 1.013000 127 107 91 0
0.064669 -0.186797 1.013000 132 110 94 0
0.067361 -0.186607 1.012000 133 111 93 0
0.070116 -0.186603 1.012000 145 123 105 0
0.072943 -0.186782 1.013000 147 123 105 0
0.075701 -0.186777 1.013000 148 125 105 0
0.078304 -0.186403 1.011000 157 136 114 0
0.080975 -0.186213 1.010000 171 148 126 0
0.083890 -0.186577 1.012000 169 148 126 0
0.086815 -0.186940 1.014000 171 148 126 0
0.089486 -0.186749 1.013000 176 153 131 0
0.092151 -0.186559 1.012000 183 160 138 0
0.094811 -0.186368 1.011000 178 153 131 0
0.097657 -0.186546 1.012000 172 147 125 0
0.100311 -0.186355 1.011000 177 152 130 0
0.103163 -0.186533 1.012000 181 156 134 0
0.105705 -0.186157 1.010000 183 158 136 0
0.108559 -0.186335 1.011000 191 166 144 0
0.111198 -0.186143 1.010000 197 172 149 0
0.113944 -0.186136 1.010000 200 177 154 0
0.116574 -0.185944 1.009000 201 176 153 0
0.119435 -0.186121 1.010000 203 178 155 0
0.122301 -0.186298 1.011000 202 179 156 0
0.124924 -0.186106 1.010000 200 178 152 0
0.127542 -0.185914 1.009000 199 177 151 0
0.130283 -0.185906 1.009000 202 180 154 0
0.133156 -0.186081 1.010000 204 181 158 0
0.135765 -0.185889 1.009000 208 188 164 0
0.138368 -0.185696 1.008000 208 187 165 0
0.141105 -0.185688 1.008000 211 190 170 0
0.143699 -0.185495 1.007000 214 195 175 0
-0.092066 -0.188367 1.007000 206 183 161 0
-0.089327 -0.188373 1.007000 204 179 157 0
